# .PCD v0.7 - Point Cloud Data file format
VERSION 0.7
FIELDS x y z
SIZE 4 4 4
TYPE F F F
COUNT 1 1 1
WIDTH 1586
HEIGHT 1
VIEWPOINT 0 0 0 1 0 0 0
POINTS 1586
DATA ascii
1.0200635 3.9989572 0.50673276
1.0472618 4.0996075 0.67016536
1.7524426 6.8551159 1.3753513
1.2222998 4.774385 1.1378024
2.3758657 9.2668085 2.5633438
0.95921707 3.7197275 0.067052148
1.0492349 4.0629482 0.2199157
1.0384128 4.018137 0.36309084
1.0837517 4.1875501 0.53110665
1.1076572 4.2737603 0.69926214
1.03309 3.9831896 0.79987139
2.3882668 9.1950111 2.1932726
2.4013884 9.2322845 2.556097
0.98231649 3.7550485 0.067750245
1.0370923 3.9587934 0.21447276
1.0787042 4.1147051 0.37215498
1.0908023 4.1549406 0.52745056
1.6740576 6.3675489 1.0427923
1.0449886 3.9719644 0.79834485
2.3170788 8.7946568 2.0996931
2.4311388 9.2145061 2.5535088
0.99182743 3.7380674 0.067505911
1.0478284 3.943567 0.21384473
1.095085 4.1127424 0.5225758
1.1588421 4.3460889 0.71240264
2.3065157 8.6321344 2.0628011
2.451298 9.1611767 2.5410855
1.0079882 3.7461684 0.067715339
1.0631458 3.9456711 0.21415874
1.209586 4.4860406 0.40649435
1.1037415 4.0878134 0.51989466
1.7555965 6.4930029 1.0653188
1.1952422 4.4175038 0.88955158
2.2846539 8.4321756 2.0169113
2.4104202 8.8840837 2.4665456
1.0273737 3.7657773 0.068134196
1.1779727 4.3118534 0.23425576
1.1934236 4.3624282 0.39568707
1.1185292 4.0858502 0.52013838
1.7798128 6.4925518 1.0662575
2.3875129 8.6974468 1.7531532
2.3150256 8.4218674 2.0164614
2.3860836 8.6744461 2.4106407
1.081174 3.9065299 0.070752062
1.1980348 4.3229051 0.23509313
1.1037539 3.9800096 0.36134771
1.8067774 6.4974022 1.0681347
1.4647137 5.2637477 1.062043
2.3370886 8.387454 2.0101628
2.4059176 8.6228447 2.398735
1.115327 3.9758966 0.072078437
1.2163591 4.3302336 0.23572117
1.1392047 4.0528545 0.36832017
1.1992651 4.2551217 0.70020074
1.2256858 4.3459525 0.87772143
2.3599908 8.356741 2.0047638
2.4212856 8.5623436 2.3842413
1.0865473 3.8219476 0.069355868
1.1722361 4.1206255 0.22452128
1.130421 3.9683745 0.36099908
1.3402373 4.6956081 0.77341211
1.2494797 4.3718505 0.88382733
2.4616377 8.6074286 2.0668504
2.441155 8.5245514 2.3759589
1.0859375 3.7722037 0.068518147
1.1975054 4.1570187 0.22671939
1.1441257 3.9665184 0.36117339
1.2861824 4.4531703 0.56912988
1.4139373 4.8922954 0.80657619
1.2454138 4.3035631 0.87085229
2.4690256 8.5262165 2.0493042
2.4489644 8.4459047 2.3562887
1.1672693 4.0047183 0.072811447
1.1633241 3.986011 0.21761292
1.202515 4.1176147 0.37529263
1.2664005 4.3307514 0.55401808
1.2039779 4.1119547 0.67861283
1.2552633 4.284337 0.8677994
2.4916434 8.4932365 2.0434554
2.4495764 8.3390656 2.3288538
1.148963 3.8913021 0.070821866
1.1676058 3.9493654 0.2158335
1.207418 4.0787916 0.37215498
1.2877109 4.3472424 0.55669922
1.2306805 4.1493912 0.68549597
1.4878155 5.0099301 1.0158671
1.0791966 3.6293492 0.87415981
2.458288 8.2619543 2.3097014
1.1523257 3.8506653 0.070158668
1.1803542 3.9393194 0.21551949
1.2433932 4.1470737 0.37877885
1.223729 4.0763154 0.5225758
1.2151732 4.0426974 0.66860098
1.4934181 4.9652247 1.0078532
1.094106 3.6330245 0.87595946
2.4762809 8.2121973 2.2983131
1.1738791 3.8734124 0.070647344
1.1732191 3.8663719 0.2117513
1.5142952 4.9872642 0.45599884
1.1992638 3.9447684 0.50624532
1.2246767 4.023313 0.66609806
1.4558249 4.7796874 0.97121781
1.1050764 3.6235907 0.87460971
1.1424513 3.7414632 1.0482172
1.2384329 4.0356092 0.073684059
1.1889666 3.8720069 0.21227466
1.2869527 4.1859026 0.38313666
1.2276262 3.9879894 0.51233876
1.2153343 3.9456031 0.65389615
2.6765347 8.6786613 1.765365
1.1274937 3.6513648 0.88225806
1.1485782 3.7173512 1.0425231
1.152778 3.7125525 0.067854956
1.1603758 3.7324207 0.20484295
1.1594384 3.7248187 0.34130189
1.1552494 3.7090797 0.47699666
1.1585286 3.7150402 0.6163519
1.1573266 3.7089083 0.75522202
1.1384329 3.6438859 0.88135827
1.1471297 3.6672251 1.0295821
1.1555352 3.6760755 0.067261577
1.1595622 3.6866372 0.20254017
1.162208 3.6905475 0.3385129
1.1640117 3.6917713 0.47529048
1.1654919 3.6942236 0.61353606
1.1602142 3.6730204 0.74873453
1.1341038 3.5860069 0.86831105
1.1563711 3.6541913 1.026994
1.1646886 3.6626954 0.067087047
1.1700013 3.6749542 0.20212148
1.1762944 3.6902645 0.33886153
1.1738342 3.6803265 0.47431552
1.1759775 3.6826055 0.6122846
1.1676068 3.654192 0.74568158
1.1507404 3.5970747 0.87191027
1.1708848 3.6556528 1.0285469
1.1750431 3.6488838 0.066912524
1.1779461 3.6535335 0.20117943
1.1879462 3.6823432 0.3385129
1.1848742 3.6684439 0.47334057
1.187035 3.6707525 0.61103308
1.1803871 3.6480203 0.74529999
1.1603123 3.5817096 0.86921084
1.1854703 3.6550109 1.0295821
1.1846725 3.6352541 0.066738002
1.1869761 3.6380067 0.20055141
1.1971033 3.6647072 0.3372927
1.195823 3.6586246 0.47260937
1.1961559 3.6553221 0.60915589
1.191304 3.6362071 0.74377352
1.1685742 3.5626194 0.86561167
1.1976166 3.6490159 1.0290645
1.2004956 3.6384838 0.066877626
1.2040501 3.6471174 0.20128411
1.2055123 3.6472638 0.33607253
1.2079763 3.6504481 0.47212186
1.2039417 3.636122 0.60665292
1.202755 3.628299 0.74301028
1.1828436 3.5640674 0.86696136
1.2060859 3.6319792 1.0254411
1.2081238 3.6212044 0.066633284
1.2136108 3.63342 0.20076075
1.2163382 3.6373658 0.33554959
1.2207059 3.6483045 0.47236562
1.2210164 3.6450098 0.60884303
1.2097899 3.6093984 0.73995733
1.1965151 3.5656681 0.86831105
1.2169117 3.6222527 1.0238881
1.2207578 3.6169648 0.066633284
1.226925 3.6310539 0.20086543
1.230947 3.6408617 0.33624685
1.2321599 3.6402609 0.47187814
1.2343675 3.642596 0.60915589
1.225533 3.6144502 0.7418654
1.2114608 3.5688508 0.87011069
1.2289261 3.6161542 1.0233705
1.2359613 3.6202512 0.066772908
1.2402374 3.6286392 0.20097008
1.2449389 3.6403129 0.33659548
1.2429293 3.6303034 0.47114691
1.2483552 3.6420023 0.60978162
1.2375046 3.6082933 0.74148381
1.2226447 3.560914 0.86921084
1.2446822 3.6209767 1.0259588
1.2492427 3.6178052 0.066807814
1.251592 3.6205122 0.20076075
1.2608941 3.64536 0.33746704
1.2601418 3.6390731 0.47285309
1.2604145 3.6357558 0.60946876
1.2526668 3.6113708 0.74301028
1.2376252 3.563988 0.87101048
1.2585821 3.6202595 1.026994
1.2671371 3.628526 0.067087047
1.266199 3.6217778 0.20107476
1.2729524 3.6390557 0.3372927
1.2754606 3.6421468 0.47382805
1.2750596 3.6369264 0.61040735
1.2698135 3.6199446 0.74568158
1.2590989 3.585387 0.87730908
1.2744161 3.6249564 1.0295821
1.2757993 3.6127677 0.066877626
1.2881545 3.643698 0.20254017
1.2909617 3.6496172 0.33868721
1.2947935 3.6563842 0.47626543
1.2943467 3.651072 0.61353606
1.2883495 3.6321423 0.74911612
1.2768227 3.5956614 0.88090831
1.2954733 3.6441493 1.0363115
1.2937829 3.6233578 0.067156859
1.3096045 3.6636291 0.2039009
1.3097333 3.6619725 0.34025604
1.3149089 3.6724007 0.47894657
1.3284137 3.7060361 0.62354785
1.3043333 3.6368632 0.75102425
1.2999033 3.620528 0.88810676
1.3505598 3.7410765 0.069425672
1.6578788 4.5848379 0.4265402
1.4392089 3.9757702 0.51916343
1.4288329 3.942812 0.66422081
1.7868123 4.9279513 1.0189201
1.5887479 4.3485065 0.24262951
1.667031 4.5603104 0.42479706
1.7859913 4.880446 0.6381079
1.4738455 4.0231223 0.67861283
1.8026536 4.9179974 1.0181569
1.5787463 4.279377 0.07961788
1.5969949 4.3241997 0.2415828
1.6948874 4.581881 0.599841
1.4974846 4.0438867 0.68299294
5.0215187 13.553134 2.8094718
1.5517511 4.1614208 0.077523597
1.8663255 4.9996943 0.27968338
1.6953399 4.5392299 0.42392552
4.8698325 13.024962 1.7073896
1.4949719 3.9942343 0.67548412
1.499572 4.0043964 0.83116406
2.9532828 7.8695831 2.2522435
1.546523 4.1035843 0.076546252
1.6362594 4.3393917 0.24304819
1.6830313 4.4587231 0.41695309
1.6882411 4.4678049 0.58643532
1.5165907 4.0114274 0.6792385
2.9930527 7.8958769 2.2625961
1.5651037 4.111515 0.076790586
1.6449931 4.3168578 0.24210617
1.9613272 5.1415935 0.48144829
1.6782746 4.3972702 0.57790446
1.8513668 4.8457131 0.82159394
3.0247445 7.896204 2.265702
1.5794469 4.1060262 0.076790586
1.6212966 4.2104406 0.23645388
1.9855306 5.1536522 0.48319143
1.7707577 4.5914149 0.60422826
1.7537253 4.5425286 0.771222
5.2220573 13.519238 2.8171041
3.0425282 7.8603745 2.2584553
1.5995648 4.1153998 0.077069834
1.6229473 4.1712523 0.23456979
4.8179483 12.370154 1.1614374
1.7975867 4.6129498 0.60788435
5.721498 14.667318 2.4935656
3.054466 7.8101254 2.247067
1.6365747 4.1653447 0.078116976
1.6309227 4.1488318 0.23362774
1.874984 4.7648039 0.44798052
1.7279037 4.3865418 0.57887942
1.8607224 4.7213054 0.80376035
3.0987458 7.8425374 2.2594905
1.6216178 4.0874038 0.076755688
1.577575 3.9723399 0.22399792
1.7208463 4.3286924 0.40754023
1.7343713 4.360497 0.57619828
1.8370039 4.6138425 0.78655261
5.4861321 13.772043 2.8815978
3.1160746 7.8065543 2.2522435
1.5034592 3.7513199 0.070542626
1.5899949 3.9652331 0.22389325
1.7389015 4.3322077 0.4084118
1.7481009 4.3507333 0.57571083
1.820611 4.528914 0.77309924
4.6627445 11.587257 2.4278538
3.3274994 8.2607508 2.0560527
3.154223 7.8266377 2.2610431
1.5166417 3.7481666 0.070577532
1.58733 3.9189332 0.22159046
1.879782 4.6363058 0.43769613
1.8848941 4.6465917 0.61568397
1.8497871 4.5554748 0.77873087
1.8436571 4.5381122 0.95213693
3.359282 8.2605009 2.0587521
3.1793411 7.8102117 2.2594905
1.5319833 3.7484045 0.07068225
1.6139247 3.9469233 0.22347455
1.6845716 4.1155977 0.38906324
1.8890618 4.6105933 0.61178416
2.1151321 5.1597915 0.88322914
1.8639599 4.5425467 0.95442665
3.3925366 8.2595415 2.0614514
3.21697 7.8282151 2.2677724
1.5383047 3.7285147 0.07040301
1.6978328 4.1110997 0.23310436
1.6814218 4.0673432 0.38505405
1.9536575 4.7235379 0.62762713
2.1399295 5.1688032 0.88604486
1.8684964 4.5109468 0.94908404
3.4087102 8.2212439 2.054703
3.26057 7.8561921 2.2791607
1.5410625 3.6948965 0.069879435
1.7228874 4.1288118 0.23446509
1.6993886 4.0685072 0.38575131
1.8063794 4.3204074 0.57497966
5.2271523 12.495928 2.1453426
1.8759447 4.4801974 0.94412297
3.4425142 8.2134857 2.0560527
3.2833641 7.8299365 2.2750194
1.5711529 3.7321556 0.07068225
1.7869271 4.2405658 0.24116412
1.7197759 4.0772367 0.38714582
5.278429 12.4958 2.1484711
5.3483286 12.655098 2.6705627
3.4628975 8.185873 2.0520036
3.3136873 7.8255448 2.2770901
1.5912127 3.7432113 0.070996389
1.6156009 3.7969055 0.21625218
1.727825 4.0586777 0.38592559
2.0100577 4.717082 0.6295771
2.034411 4.7696095 0.82128108
5.3940034 12.639967 2.6713262
3.4906874 8.1719427 2.0515537
3.4070606 7.9684663 2.3221245
1.7880417 4.1657901 0.079129212
1.6091357 3.7453663 0.2136354
1.7490625 4.0690966 0.38749442
2.0518281 4.7642941 0.82159394
5.4458642 12.639089 2.6751423
3.5199614 8.1614981 2.0520036
3.4294972 7.944109 2.318501
1.7238529 3.9778769 0.07567364
1.6182247 3.7305651 0.21311203
1.7688071 4.0757604 0.38871458
2.0461037 4.710217 0.63055205
2.0534813 4.7226825 0.81564939
1.9124751 4.3962979 0.93191117
3.560101 8.1759615 2.0587521
3.481133 7.98699 2.334548
1.6223077 3.7080228 0.070647344
1.6384487 3.741359 0.21405408
2.0396841 4.6553593 0.44466859
1.8919187 4.3140035 0.57839197
2.0508971 4.6720757 0.80814058
1.923074 4.3788099 0.92962146
3.5862644 8.1581335 2.0574024
3.50899 7.9747906 2.334548
1.7354231 3.9291606 0.074975535
1.6579603 3.7502306 0.21489146
1.6465096 3.7225776 0.35611835
1.8965201 4.2837758 0.57522333
2.1744359 4.9068913 0.85006499
1.9351654 4.3648911 0.92809504
3.6178834 8.152688 2.059202
3.5501356 7.9925079 2.3433478
1.8419597 4.1312861 0.078954689
1.6824354 3.7699547 0.21635687
1.6603073 3.7186265 0.35629267
1.9090308 4.2716923 0.57449216
2.1818702 4.8776331 0.84631056
2.0690806 4.6233234 0.9845745
4.9074326 10.955314 2.7713971
3.6112111 8.0541019 2.3650885
1.9056091 4.2342443 0.081048973
1.6736072 3.7170048 0.2136354
1.6593602 3.6819291 0.35332939
1.8765882 4.1600509 0.56035525
2.0810225 4.6110973 0.80125743
4.2585106 9.4271641 2.0107453
4.9228711 10.892807 2.7596996
1.6933594 3.7277999 0.21457745
1.7804133 3.9158173 0.37633851
2.194608 4.8223171 0.65053862
2.0840209 4.5772057 0.79656434
4.267765 9.3647566 2.0004416
4.9840202 10.931393 2.7736466
3.6597364 8.0194292 2.3619826
1.9511377 4.2596912 0.081781976
1.7088597 3.7273126 0.21489146
1.6945418 3.6943855 0.35559544
2.1368747 4.6544523 0.62884587
2.1016364 4.5734921 0.79719013
2.2634256 4.9210434 1.0528841
2.0976539 4.5585337 1.1584979
3.9376736 8.5140972 0.16373847
1.9800878 4.2774563 0.24702574
2.0487275 4.419663 0.59813482
2.1458197 4.6248918 0.80751479
2.2921979 4.9358616 1.0578451
2.1127045 4.5472813 1.1575981
3.6494164 7.8476439 2.3190186
3.9307785 8.4180737 0.16216777
1.75324 3.7529888 0.21708956
1.9030181 4.0699039 0.3930724
2.0649116 4.4121246 0.59813482
1.8805045 4.0162735 0.70239085
4.3563914 9.29568 1.9954805
2.1360114 4.555758 1.1616472
3.7547534 8.0009995 2.3681943
3.9066987 8.2946367 0.16003856
1.7290657 3.6694663 0.21258868
1.776273 3.7662363 0.36431101
2.1074948 4.4644928 0.60617816
2.1224208 4.4940743 0.78717828
4.3670549 9.2385855 1.9863218
5.1145058 10.814932 2.7619491
3.8895624 8.1877117 0.15822351
4.2830501 9.0079079 0.5227316
1.9017255 3.9978197 0.38732013
2.2025042 4.6259556 0.62908959
2.1389441 4.4884224 0.7874912
4.3444419 9.1124067 1.9622798
4.3490505 9.113883 2.3313928
3.7521617 7.8278642 0.15152179
2.0293729 4.2299404 0.24587436
5.0384345 10.492524 1.0183277
4.3951588 9.1488008 1.2462361
4.3905172 9.1309834 1.604705
4.3871741 9.1158829 1.9664776
4.3756623 9.0838356 2.3277936
3.7756033 7.8032584 0.15131237
4.0940762 8.4539366 0.49227205
4.4330521 9.1498232 0.88951147
2.0328698 4.1921153 0.57205474
4.4731216 9.2161245 1.6225384
4.4163976 9.0952129 1.9653327
4.3886023 9.0299482 2.3178957
3.8370292 7.8601146 0.15267365
2.1253493 4.3498983 0.25372472
4.4317131 9.0662746 0.8828876
2.0405128 4.1707287 0.57010484
4.5087371 9.207551 1.6237899
4.4489851 9.0815039 1.9657143
4.4192352 9.0128241 2.3174458
4.005806 8.1337023 0.15825842
2.1062155 4.2747478 0.24974722
4.4739103 9.0721912 0.88497937
2.0866876 4.227663 0.57887942
4.4649987 9.0342388 1.9588453
5.7346354 11.592965 2.9860003
4.8703609 9.8414507 2.9422553
4.4143271 8.8887119 0.17323259
4.3115916 8.6742411 0.50765884
4.5401592 9.12609 0.89177752
2.1086552 4.2367148 0.58107305
5.0486956 10.13498 1.793365
4.4712877 8.9719419 1.9485416
4.5057073 9.0331068 2.330493
4.1112323 8.2063704 0.16021308
4.4027219 8.7805433 0.51477653
4.5373416 9.0450926 0.88532805
6.8592925 13.661935 1.8770318
5.1053324 10.159656 1.8008738
4.5219803 8.9948673 1.9569372
4.9804235 9.8981657 2.5581434
4.2498903 8.4097071 0.16447149
4.4090042 8.7170019 0.51195037
2.1832438 4.3146019 0.42305395
4.2126846 8.3180447 1.1448407
2.1184661 4.1793413 0.74212521
4.6057377 9.0823374 1.9794526
5.0492697 9.9397573 2.9872897
4.3491459 8.5320034 0.16715914
4.4303303 8.6837654 0.51090366
4.6646914 9.1391907 0.89770412
4.2425995 8.3050556 1.1450845
2.120451 4.1472979 0.73774499
6.1608686 12.044573 2.6297297
5.1097865 9.9811115 2.5887368
4.0725908 7.9210043 0.15546604
4.3317537 8.4178476 0.49614492
2.2448866 4.3568544 0.60179085
5.5274234 10.718367 1.9100651
5.190218 10.060162 2.2004094
5.0927415 9.8627844 2.5626423
4.0192075 7.7505217 0.15239441
4.3519125 8.3849468 0.49509817
6.0605907 11.672108 1.1506301
4.2675185 8.2118244 1.1363099
5.5520391 10.674472 1.9056848
5.6294732 10.818735 2.3706112
4.919136 9.437501 2.8516684
4.0443783 7.732903 0.1523246
5.6593809 10.811604 0.63954544
2.1931672 4.1862402 0.41346684
4.2915516 8.1880856 1.1350911
5.6323981 10.737244 1.9203898
5.6772985 10.813674 2.3740456
5.0390029 9.5897522 2.5010059
4.1249609 7.8170643 0.15427928
5.6952186 10.788253 0.63933611
2.2068367 4.1767964 0.41329253
5.5826364 10.557134 1.4663321
5.8444314 11.047526 1.9795219
5.3070316 10.019005 2.6175306
4.1583686 7.8174691 0.15455851
5.7394047 10.785176 0.64027816
2.2178648 4.1641803 0.41276959
4.3878298 8.2314997 1.1453282
4.1809516 7.8401027 1.4072846
4.7459412 8.8920927 1.9592268
5.9478612 11.139355 2.9153657
4.1842713 7.8036351 0.15455851
4.7731009 8.8943424 0.52901191
2.2307179 4.1550474 0.41259527
4.3465109 8.0892534 1.1275353
4.2195191 7.8463397 1.411039
4.7750931 8.872014 1.9584637
5.4296098 10.083884 2.6440747
4.2157269 7.822906 2.3811355
4.2137985 7.7900047 0.15459342
4.8208799 8.904891 0.53068662
4.6303988 8.549469 0.85064
4.3941026 8.1064281 1.1321664
4.2576661 7.8481846 1.4141676
4.8122602 8.8630791 1.9603716
5.5028067 10.130703 2.6616209
4.2425232 7.8040085 2.3801
4.2528567 7.7938175 0.15497737
5.2165499 9.5559235 0.57056665
4.7486305 8.6915512 0.86650234
4.3704529 7.9927306 1.1185169
5.1401496 9.3964634 1.6963756
5.0647249 9.2509127 2.0500519
4.3003812 7.8450556 2.397182
4.2815685 7.7849298 0.15508209
5.2662454 9.5674019 0.57234609
4.8000927 8.7133131 0.87033719
4.387351 7.9608092 1.1160794
5.1547937 9.3455982 1.6904311
6.0002465 10.873922 2.4141154
6.0877838 11.023451 2.9072676
3.6922705 6.6802664 2.0451882
4.3290801 7.8066626 0.15581508
5.2175269 9.4049244 0.5636583
4.8115506 8.6659946 0.86719966
4.5674596 8.2196045 1.1545902
5.2231865 9.3957882 1.7026329
4.993947 8.9760399 1.9966254
6.1432886 11.032782 2.9153657
3.7115812 6.6629229 2.0436354
4.14715 7.4204545 0.14838037
5.0529585 9.0264072 0.90502524
4.6208835 8.2511768 1.1611712
5.2607784 9.386116 1.7041972
4.978559 8.8789444 1.9786894
6.2475495 11.13301 2.9473085
4.1553588 7.3745732 0.14775208
4.6139655 8.181798 0.49227205
4.7735081 8.4612494 0.8499428
4.6232991 8.1883268 1.1545902
5.2915688 9.364253 1.7035716
4.96314 8.779479 1.9603716
6.3017297 11.13827 2.9545071
3.710413 6.5527954 2.0177534
3.8205547 6.7253876 0.13501182
4.6513839 8.1812687 0.49321413
4.8493128 8.5259314 0.85813546
4.6508737 8.1704121 1.1543465
5.0474992 8.8599892 1.6150296
5.0015354 8.7757463 1.9634248
3.7423549 6.5610504 1.7438205
3.7131529 6.50457 2.0068829
3.8290958 6.6859837 0.13448824
3.8227918 6.6695695 0.40288225
3.8126469 6.6491876 0.67057627
3.8049502 6.630393 0.93863773
6.3347163 11.029769 2.0145633
3.7733717 6.5673981 1.4722823
3.7419219 6.5074015 1.7330229
3.7261953 6.4748282 2.0017066
3.8424141 6.6552582 0.1341392
3.8280618 6.6250572 0.40099812
3.8228731 6.6134129 0.66831023
3.8101776 6.586143 0.93425047
3.8086667 6.5782261 1.2039198
3.7815118 6.5287042 1.466558
3.7607067 6.4875555 1.7312233
3.7565312 6.4751492 2.0058477
3.8605914 6.6331649 0.13396467
3.8481505 6.6064763 0.40068412
3.8318899 6.5759292 0.66586983
3.8231459 6.5556545 0.93181306
3.8196526 6.5444217 1.2001654
3.7963603 6.5019002 1.4635051
3.7862744 6.4794383 1.7325729
3.7761862 6.4569931 2.0042949
3.878664 6.6110234 0.13379015
3.8752286 6.5998955 0.40110281
3.8468833 6.5463796 0.66430104
3.8470101 6.5439811 0.93205678
3.8324583 6.5140219 1.1970366
3.8161795 6.4811754 1.4619786
3.8109884 6.467196 1.7330229
3.8065498 6.4570866 2.0084357
3.9049034 6.6002059 0.13385996
3.9002788 6.5897646 0.40131214
3.8778329 6.5466266 0.66569555
3.8567991 6.5059299 0.92864448
3.8561795 6.5023041 1.1973495
3.8397837 6.4695024 1.4623603
3.838382 6.4645767 1.7357224
3.8517656 6.4819565 2.0203414
3.9411058 6.6112661 0.13434863
3.9272268 6.5853705 0.40183553
3.9107547 6.5525489 0.66761297
3.8864946 6.5067391 0.93059438
3.8767095 6.4877839 1.1970366
3.8682685 6.4685297 1.4650315
3.8758073 6.4785686 1.7429208
4.4825568 7.4868422 2.3381712
3.9753623 6.6187329 0.13476749
3.9437549 6.5583272 0.66953039
3.9193084 6.5125256 0.93327552
3.9054456 6.4843664 1.1989139
3.898818 6.4707994 1.4684662
4.9831858 8.2639875 2.2279153
4.6783481 7.7523317 2.4261699
4.4864316 7.4050617 0.45375276
5.1639824 8.5166893 0.87138307
5.4389372 8.9666185 1.2876717
3.9331808 6.4791379 1.2004782
5.1559358 8.4866962 1.9302238
5.3029919 8.7218904 2.3565874
4.6196089 7.5681362 0.15476793
4.460207 7.3041282 0.4485192
5.1469297 8.4221087 0.8635391
4.7384653 7.7476444 1.1151046
5.4001431 8.8260612 1.6388077
6.305059 10.296992 2.3469508
5.2672234 8.5953226 2.3273437
4.8049526 7.8133917 0.16010839
4.5024238 7.3157296 0.45019394
5.2786961 8.5703382 0.88062155
4.7516341 7.7116089 1.1121798
5.4122581 8.7768908 1.633176
6.3886447 10.356232 2.3652685
5.1063075 8.2710447 2.2441118
4.8567548 7.8606868 2.475863
4.7268462 7.6266031 0.15661789
4.2888036 6.9171333 0.42653811
5.2650657 8.4850693 0.87364912
4.7900453 7.7135253 1.1148609
5.3892159 8.6749964 1.6175325
6.3625641 10.233829 2.3423715
5.0949955 8.1886415 2.2265656
3.4096863 5.4778929 1.7289113
4.7266951 7.5701771 0.15578018
4.4420476 7.1087589 0.43930805
5.2164774 8.3416348 0.86075008
4.8661351 7.7783756 1.1265603
5.3586602 8.5590258 1.5993862
5.4012532 8.623702 1.9779261
5.1935339 8.2856331 2.2576087
3.4431608 5.4888678 1.7361581
5.0082703 7.9530072 0.16405262
4.5214882 7.1744466 0.444437
5.343709 8.4758301 0.87661242
4.8663049 7.7126274 1.1197356
5.3577375 8.4849377 1.5893744
5.4469061 8.622818 1.9825056
5.2950802 8.3759909 2.2877522
3.4631796 5.4739728 1.7356406
5.0252881 7.918591 0.16370356
4.4501328 7.0068841 0.43501651
5.1948328 8.1762857 0.84750247
4.9187584 7.7357979 1.1255853
5.4286847 8.5311785 1.6015763
5.4147677 8.5060396 1.95999
5.5410295 8.69767 2.380882
3.438643 5.3934374 1.7138997
5.0248885 7.8571992 0.16279604
4.5142446 7.0560207 0.43899405
4.2618275 6.6563525 0.69149363
4.9907141 7.7887788 1.1358224
5.4910555 8.5663471 1.611588
5.4465489 8.4903908 1.9607532
5.4997606 8.5667677 2.3502886
3.4606864 5.3885055 1.7159703
5.1884513 8.0539894 0.16722897
4.5258617 7.0200748 0.43773797
4.2915158 6.6514816 0.69253951
5.006825 7.7571764 1.1336287
5.4716187 8.4708004 1.597196
5.5077038 8.5234013 1.9725834
5.5133257 8.5255709 2.3439898
3.4889231 5.3909883 1.7206291
5.1076493 7.8681026 0.16373847
4.657897 7.1725307 0.44820517
4.2929196 6.6054735 0.68922758
5.0241303 7.7246776 1.131435
5.8498039 8.9907303 1.6988785
5.5556369 8.5320911 1.979071
5.5249672 8.4785175 2.3363416
5.1271491 7.8410797 0.16352905
4.6905594 7.1679282 0.44893786
4.3246846 6.6037807 0.69062209
5.2542334 8.0201445 1.177258
5.9732165 9.110672 1.7254723
5.6032791 8.5431728 1.9859402
5.5968933 8.5269451 2.3547876
3.144769 4.7874556 1.534797
5.3239231 8.080286 0.16890439
4.71665 7.1531801 0.44904256
4.3366885 6.5744343 0.6890533
5.5337286 8.3827925 1.2333179
5.6336842 8.5277357 1.6187841
5.6319857 8.5219202 1.9855584
5.6448975 8.5349894 2.3624361
3.1603961 4.774837 1.5342795
5.3189125 8.0116739 0.16785724
5.4069624 8.138134 0.51205504
4.3530326 6.5468826 0.68783307
5.5288763 8.3121834 1.225762
5.6119733 8.4307308 1.6040792
5.706718 8.5665789 2.0008233
5.6523628 8.478569 2.3525381
3.1673961 4.7493124 1.5296206
5.3104267 7.9356217 0.16667047
5.4220018 8.0992947 0.51079899
4.3847318 6.5448885 0.68922758
5.5272493 8.2440472 1.2186935
5.6545739 8.4307747 1.6078336
5.809896 8.6558218 2.0263917
5.6047726 8.3439341 2.3205953
3.1440895 4.6788979 1.510468
5.2707715 7.8201346 0.1646111
5.7283397 8.4926128 0.53686231
5.668282 8.3972502 0.88637388
5.1657362 7.6498766 1.1333849
5.6872854 8.4158964 1.6087722
5.8319693 8.6267509 2.024102
5.5963783 8.2720366 2.3057485
3.1549864 4.6598964 1.5078799
5.3126431 7.8231931 0.16506486
5.7568245 8.4709148 0.53675765
5.794672 8.5234051 0.90171331
5.1968727 7.6383643 1.13436
5.7422004 8.433547 1.6159682
5.8863592 8.6420393 2.0324974
5.6285143 8.2572803 2.3070979
3.2191331 4.7190762 1.530656
5.3444376 7.8112011 0.16520448
5.8055444 8.4787827 0.53853709
5.7827315 8.4423046 0.89526373
5.3783932 7.8461285 1.1679959
5.7693629 8.4101973 1.6153424
5.9064941 8.6068697 2.029063
5.6639171 8.2472248 2.3097975
3.1852534 4.6345735 1.5068446
5.3886938 7.8171954 0.16572805
5.7058158 8.2710457 0.52660441
5.7883992 8.3876333 0.89160323
5.7610955 8.3418303 1.2447736
5.7537618 8.3250046 1.6028277
7.1490378 10.339932 2.4435
5.7935753 8.3732328 2.3507385
3.187114 4.6027799 1.5001153
5.4307785 7.8196874 0.16618182
5.5249124 7.9493132 0.50734478
5.4375696 7.8149095 1.1689708
5.7782741 8.2983837 1.6015763
5.910326 8.4848785 2.0099821
5.8807192 8.4360876 2.3741336
3.3556938 4.8102741 1.5715494
5.4763789 7.8269019 0.1667403
5.4678559 7.8089099 0.4995991
5.7393622 8.1936255 0.87521797
5.815145 8.289484 1.6037663
5.909461 8.4208059 1.9996784
5.914609 8.4218884 2.3759329
3.2269478 4.5914798 1.5037388
5.5151892 7.8240809 0.16708934
5.5376768 7.850163 0.50347197
5.7633896 8.1610556 1.226737
5.0448513 7.138298 1.3844452
5.9354172 8.395319 1.9985336
5.9709859 8.4393692 2.3867307
3.6314363 5.1288662 1.6838769
5.5389962 7.7998896 0.16698463
5.3971176 7.5972905 0.48839921
5.7779574 8.1273727 0.87242895
5.9103727 8.3074884 1.251842
5.087966 7.14889 1.389764
5.9544373 8.3601551 1.9950989
6.0490432 8.4867125 2.4060764
6.2022114 8.6983938 2.8625388
5.5636692 7.7798495 0.16694972
5.3771076 7.5134387 0.48421234
5.7993298 8.0974369 0.87138307
6.1344295 8.56217 1.2932776
5.9970016 8.361104 2.0000601
5.0283084 7.005374 1.9908168
3.6628847 5.0993199 1.6823239
5.5872841 7.7555156 0.16684501
5.4021316 7.4930038 0.48410761
5.8564539 8.1201735 0.87591517
6.2560606 8.6678629 1.3125329
5.1585698 7.1420197 1.3953955
5.9767118 8.2716913 1.9836504
5.0595846 6.9972525 1.9935162
6.0940418 8.4216843 2.7854106
6.1534367 8.4788141 0.18286632
5.4141726 7.4547086 0.48285159
6.0817957 8.3678064 0.90502524
5.9921012 8.2413721 1.2511108
5.1927652 7.1367493 1.3978986
5.9723177 8.2021179 1.9722018
5.0886374 6.983387 1.9948659
3.6983955 5.0736241 1.6823239
5.8504009 7.9994154 0.17298825
5.3811975 7.355166 0.47761798
5.9567828 8.135931 0.88219041
5.5165963 7.5292053 1.1460594
5.2176471 7.1185775 1.3978986
5.015079 6.8372092 1.6482083
5.121057 6.9765773 1.9980152
3.6886377 5.0233145 1.6699005
5.4696388 7.4215517 0.48316559
5.9484835 8.065382 0.87678677
5.6346412 7.6370616 1.1653148
5.2436357 7.1019115 1.3982115
5.0202308 6.7968521 1.6424839
5.1800747 7.0081367 2.0119622
3.7118957 5.0181732 1.6724888
5.3870955 7.259027 0.47374511
6.0334072 8.1239872 0.88532805
6.2218251 8.368535 1.6516353
5.0509591 6.7887363 1.6447737
5.2184672 7.0087724 2.0173612
3.7423654 5.0244274 1.6787004
4.4734359 5.988483 0.13047419
5.3753319 7.190587 0.47050032
6.0891771 8.1395721 0.88933718
6.8461537 9.1481161 1.4029599
5.3498774 7.1435294 1.4135419
6.0528169 8.0792036 1.9622798
5.2229791 6.9664807 2.0101628
3.7552445 5.0051508 1.6766298
4.4869409 5.9608603 0.13022986
5.3535419 7.1095567 0.46641809
5.9748673 7.9289136 0.86859411
6.4493599 8.5523815 1.315214
5.503264 7.2951255 1.4473319
5.126616 6.790916 1.6539325
4.7046003 6.2273703 1.8018579
4.6951876 6.2126622 2.0865991
5.4676447 7.2085805 0.4741638
6.1976476 8.1651077 0.89683259
6.4176641 8.4518976 1.3030272
5.4593716 7.1846499 1.4291855
6.4334168 8.4634399 2.0664616
4.7287612 6.216392 1.8032078
3.6988223 4.8589172 1.6362541
6.0017586 7.8613453 0.17263921
5.5388527 7.2497582 0.47814137
6.1835566 8.0906858 0.89090598
6.4531598 8.4373274 1.3042458
5.4928236 7.1765285 1.4313755
4.8850861 6.3801885 1.5619626
4.7587295 6.2106743 1.806357
4.7349191 6.1751328 2.0850463
5.4074764 7.0318999 0.15483776
5.7334313 7.4503975 0.49269074
6.2873254 8.164258 0.90153903
5.904696 7.6646433 1.1879824
5.5323162 7.1760836 1.43513
4.8880496 6.3358169 1.555475
4.8636312 6.2996254 1.8374002
5.3563166 6.9352665 2.3480065
5.3927932 6.9598713 0.1536859
14.05479 18.125866 1.2020524
6.3853889 8.2319975 0.9114747
5.5670619 7.1666799 1.4373201
4.9041147 6.3109632 1.5535669
5.0889606 6.544127 1.9138836
5.1883082 6.6670799 2.2636313
5.3973718 6.9157801 0.15312742
6.5106921 8.3363104 0.55434251
4.9654288 6.3554587 0.7056129
5.0130296 6.411777 0.99932873
6.732605 8.6049595 1.7304782
4.9454732 6.3185439 1.5596728
5.1165814 6.5324593 1.9156833
5.2377691 6.6823769 2.2750194
5.4709101 6.9597831 0.1545236
4.9111338 6.2454243 0.41638491
4.9740286 6.3208652 0.70369548
5.0231013 6.3786421 0.99689132
5.0460758 6.4055161 1.2915231
5.0890412 6.455421 1.5978346
5.1695256 6.5528088 1.9269307
5.4442048 6.8985119 2.3547359
5.4951992 6.9431725 0.15455851
4.9130654 6.2031908 0.41471016
4.9935894 6.3003402 0.70334685
5.0454607 6.3635035 0.99713504
5.0610394 6.3785772 1.2896459
5.1043196 6.4308195 1.5959265
6.4966116 8.1790733 2.4114752
4.8095121 6.0507255 2.0710702
4.8089118 6.0326529 0.13466278
4.9346871 6.1860042 0.41471016
5.015696 6.2853041 0.70352113
5.0502992 6.3241377 0.99372268
5.0882049 6.3670459 1.2908974
5.0985394 6.3776941 1.5871494
5.256618 6.5707288 1.9426774
4.8728628 6.0866818 2.0891874
4.6772032 5.8255944 0.13040438
4.9437428 6.1531706 0.41366345
5.0885196 6.3265781 0.99689132
5.1227837 6.364635 1.294026
5.1896152 6.4430561 1.6081383
5.2928963 6.5665894 1.9471762
5.043232 6.2546105 2.1528571
4.7463155 5.8674903 0.13173077
4.9813404 6.1536388 0.4149195
6.1752176 7.6257591 0.85848403
6.0952621 7.5216527 1.1887137
5.1485634 6.3488851 1.2946517
5.2194939 6.434051 1.610428
5.0418887 6.2106857 1.8468481
6.2598686 7.7055159 2.6601424
4.9385419 6.0617309 0.13647781
6.8062706 8.3482828 0.56449568
6.1501679 7.5408549 0.85133731
6.6448903 8.141633 1.2903527
5.1326118 6.282001 1.5768455
5.4409881 6.6546993 1.9845182
5.0364761 6.1555672 2.1311162
6.7327008 8.1994495 0.55601728
6.1726608 7.51472 0.85081428
6.5396476 7.9558406 1.2645164
7.7188735 9.3837461 1.9244571
5.23559 6.3625894 1.6016507
6.7314415 8.1746101 2.4447682
4.8392525 5.8725719 2.0389764
6.7727389 8.1897478 0.55695927
6.4896865 7.8446784 0.89073163
6.6167493 7.9925971 1.2740222
7.7830849 9.3947754 1.9322786
5.2790666 6.3699718 1.6081383
6.7897897 8.1870642 2.4555657
6.2772975 7.5637245 2.6337428
5.9394155 7.1363077 0.16206305
6.8471456 8.2240324 0.56083214
6.6713419 8.0071993 0.91182339
6.6649499 7.993845 1.277922
6.9702716 8.3570852 1.7235951
5.2484345 6.2882004 1.5921104
6.834568 8.1827545 2.4614143
6.3134918 7.5562096 2.6384015
5.9270887 7.0736542 0.16108571
6.8514271 8.1710052 0.55884337
6.2446108 7.442039 0.8499428
7.1317296 8.4962549 1.3620119
6.9994025 8.3327026 1.7235951
6.4324851 7.6550798 1.9435806
6.5092373 7.7409329 2.3349919
6.4057503 7.6124678 2.6658361
5.9259534 7.0223546 0.16038762
6.882349 8.1528196 0.55915743
6.2576852 7.4075904 0.84837395
7.0359278 8.3200016 1.7257853
6.4655061 7.6400738 1.9454886
5.1294823 6.0570502 1.8324513
4.8500662 5.725081 2.0105064
5.9116597 6.9584703 0.15937537
4.9987283 5.8797212 0.40445229
6.2822123 7.3841858 0.84819967
6.3608408 7.4739637 1.2050442
7.1789174 8.4292374 1.7536306
5.3130918 6.2362452 1.592492
6.9246349 8.1220503 2.464114
4.9063845 5.7507343 2.0255179
5.8995109 6.8952494 0.15839803
5.0633883 5.9138179 0.40801117
6.3105512 7.3678541 0.84872264
6.7434425 7.8677068 1.2723161
7.2443047 8.4461117 1.762391
7.1143842 8.2917023 2.1237042
4.6501055 5.415803 1.6479914
5.0208516 5.8434687 2.0643408
5.9013557 6.8488598 0.15780467
7.4081879 8.5915594 0.59453654
6.9180274 8.0174475 0.92646551
6.8422031 7.9267697 1.2857217
7.2737451 8.4207716 1.762391
6.5361724 7.5615506 1.9428172
4.701798 5.4355683 1.6592389
6.4620662 7.4679117 2.6461661
5.9001989 6.7969832 0.15710656
7.4068813 8.5266552 0.59191972
6.734262 7.7496171 0.8982271
6.8803267 7.9121251 1.2874278
7.2630625 8.3463717 1.7523791
6.973731 8.0110617 2.0645535
4.7860255 5.49406 1.682184
6.4830446 7.4368968 2.6435778
5.9146786 6.7658062 0.15686224
6.3359056 7.2425451 0.50430936
6.7586498 7.7230616 0.89787841
6.932754 7.9164324 1.2920588
7.2778296 8.3046274 1.7489375
6.9240017 7.8980913 2.0416565
4.9144082 5.6018414 1.7204256
6.7868118 7.7307072 2.756423
5.8959742 6.6970906 0.15574528
6.3690686 7.2293782 0.50493735
6.6156297 7.5066028 0.87539226
6.9117665 7.8370976 1.2830406
7.3616743 8.3413754 1.762078
5.1974063 5.8870068 1.526472
6.5622358 7.4277043 2.2882023
6.8342271 7.7301283 2.7647052
5.9007444 6.6555195 0.15525661
6.3942637 7.2071033 0.50493735
6.5994735 7.4357777 0.86981428
6.956212 7.8322229 1.2862092
7.5232892 8.4647522 1.7936778
6.9607062 7.8290234 2.0363138
6.5829439 7.3989267 2.2864025
6.2753825 7.0482869 2.5286622
5.9014764 6.6120462 0.15469813
6.4088168 7.1754303 0.50420469
6.6294041 7.4197965 0.87051159
7.033751 7.8668237 1.295715
7.5526366 8.441227 1.7939906
6.9512787 7.7663975 2.02601
6.6191463 7.3901186 2.2904515
6.4311552 7.1500444 0.5039953
6.6432223 7.380641 0.86876839
7.0717959 7.854023 1.2976649
7.5820508 8.4148178 1.7939906
5.3797169 5.9664035 1.5615808
6.6605473 7.3817258 2.2954006
5.9110579 6.528142 0.1537208
6.4547286 7.1260762 0.50389063
6.6635947 7.3515 0.86807114
7.1058679 7.8339329 1.2986398
7.6113796 8.388298 1.7939906
4.943871 5.4446878 1.4295411
6.6784363 7.352387 2.2931509
4.9507594 5.4465413 1.9722012
5.1365328 5.6350865 0.13309206
17.502516 19.194603 1.3613631
7.1331453 7.8117948 1.2988837
7.9189305 8.6692934 1.8596932
4.9181862 5.380444 1.4169476
5.1654959 5.6490126 1.7672155
5.1031189 5.5768929 2.0255179
5.1089902 5.5637755 0.3958692
7.6682973 8.336298 1.7939906
5.1482201 5.5908089 1.7546182
5.0872107 5.5206866 2.0115416
5.1920347 5.616713 0.13351092
5.1239219 5.5391498 0.39545053
7.7024207 8.3236876 0.992181
7.5166035 8.117197 1.3583559
8.0143309 8.6486273 1.8675148
6.6000047 7.1148891 2.2405124
5.0745516 5.4666085 1.9986008
5.2248492 5.610817 0.13382505
5.1663709 5.5460725 0.39722994
7.7641253 8.3289185 0.99619007
7.4880762 8.0271769 1.347875
8.0188627 8.5931616 1.8615704
7.3227592 7.841722 2.0855424
6.6886525 7.1601639 2.2621078
5.0659003 5.4192238 1.9877304
7.7694097 8.288065 0.19829424
7.7944279 8.3060331 0.99653876
7.0009971 7.4553065 1.2557418
7.12221 7.5817332 1.647568
7.3971343 7.8688903 2.0992808
6.5721836 6.9888835 2.2148681
4.9660134 5.277184 1.9416605
5.2688117 5.5833106 0.13399959
6.6232724 7.013721 0.5055654
7.0093145 7.4147396 1.252817
7.3291821 7.7476821 1.6891795
7.4569221 7.8799686 2.1088212
6.5335641 6.899395 2.1937227
4.9950356 5.2710342 1.9458016
5.2992849 5.5764852 0.13427882
6.6683612 7.0122666 0.50713545
6.9995699 7.3528438 1.2464797
7.5905313 7.96806 1.742993
6.7354045 7.0679312 1.8977863
6.4836373 6.7989812 2.168978
7.4540873 7.8111696 2.8930793
5.3311629 5.5709548 0.13459297
6.6900344 6.9860635 0.50692612
6.7586775 7.0429587 1.8974047
6.532979 6.8030124 2.1775262
6.6353254 6.9047704 2.565932
5.1937799 5.3895998 0.13064872
7.2037683 7.4623275 1.2735348
7.2630544 7.5184946 1.6557026
6.8090057 7.0435491 1.9042739
6.7475581 6.9751105 2.2405124
6.6580453 6.8801765 2.5654144
5.3639269 5.5254889 0.13441843
17.445621 17.964794 1.3123766
7.7146478 7.9386926 0.96847457
7.430356 7.6408072 1.3086332
7.4958682 7.7054839 1.7026329
6.9006524 7.0886707 1.922973
6.7827454 6.9626808 2.2441118
6.6860647 6.8610454 2.5669672
5.1697845 5.2902803 0.1291129
6.7530475 6.9056287 0.50619346
7.774364 7.9444647 0.97248381
7.4292674 7.5891743 1.3040022
7.2614589 7.412569 1.6435007
6.9392347 7.0811739 1.927171
6.7935152 6.927628 2.2400625
6.2174501 6.3357658 2.3785472
5.1447353 5.2280216 0.12803085
33.36145 33.877831 2.4918199
7.8062615 7.9243145 0.97318101
7.5128531 7.6211548 1.3139954
6.9156485 7.0079975 1.9138144
7.4352007 7.5292301 2.4429684
6.2680454 6.3428788 2.3894174
5.1882911 5.2355971 0.12865914
7.8619161 7.922523 0.97649294
7.5757699 7.6315136 1.3203326
7.6165228 7.6672044 1.711706
6.9136043 6.9547586 1.9061821
7.462749 7.5019259 2.4429684
6.2710671 6.3017941 2.3821707
5.1099663 5.1188936 0.12625071
7.7895288 7.794971 0.96411681
7.6598382 7.6598411 1.3300822
6.776721 6.7696304 1.8619143
6.7717204 6.7599144 2.2090194
6.165854 6.1529565 2.3340304
5.2601523 5.2345119 0.12953176
7.8152761 7.7663302 0.96394247
7.8964477 7.8442469 1.366643
6.7615085 6.7097807 1.8516105
6.7996335 6.7429113 2.2108188
6.1955271 6.1395564 2.337136
5.2755485 5.213306 0.12946194
7.7729306 7.673183 0.95557559
8.0029182 7.8947058 1.3802923
6.6565099 6.5550518 2.1568308
6.2020864 6.105423 2.3319597
5.2870984 5.1901803 0.12932234
7.8210115 7.666923 0.9581902
8.0177097 7.8570104 1.3783424
7.411015 7.2573991 1.642875
7.7413731 7.5782704 2.1057682
6.600203 6.4566274 2.1316364
6.2606606 6.1201963 2.3459358
13.802066 13.454782 0.33644751
35.082169 34.175533 2.5667648
7.8492422 7.6437306 0.95853883
8.1190672 7.9009643 1.3910168
7.6345649 7.4242907 1.6866766
7.7790432 7.5621486 2.1088212
6.5933452 6.405035 2.1221881
6.2778268 6.0942702 2.344383
13.818778 13.377308 0.33571449
35.436665 34.280613 2.583931
7.8385301 7.5775194 0.95383239
8.1523056 7.8780942 1.3919919
7.326508 7.0751233 1.6131524
7.8052926 7.5322232 2.1084394
6.591526 6.3564792 2.11409
6.3129683 6.0857286 2.3495593
13.900875 13.358441 0.3365173
7.840498 7.5266576 0.95086914
8.1467476 7.8151784 1.386142
7.1698627 6.8732495 1.5731052
7.8131118 7.4872713 2.1034784
6.4701142 6.1959515 2.0681999
6.9256253 6.6275349 2.5685203
13.990826 13.351251 0.33756444
7.8795757 7.5088606 0.95226365
8.245841 7.8551555 1.398329
7.1866593 6.8413677 1.5715408
7.9201574 7.5343633 2.1248491
6.4772425 6.1574283 2.0632513
6.9627223 6.6166248 2.5736966
14.242555 13.501509 0.34255582
7.8944449 7.4758501 0.95121777
7.8046865 7.3856931 1.3193576
7.1461539 6.7577806 1.5577745
6.8252654 6.4520812 1.8256606
6.5078893 6.1477528 2.0668504
6.6868119 6.3123584 2.4639573
15.236014 14.342653 0.36524397
7.8882852 7.4127769 1.3291072
7.0976987 6.6651845 1.5421312
6.8735118 6.4524021 1.8325297
6.8874674 6.4609818 2.1802256
6.6777997 6.2599101 2.4525695
13.804722 12.904686 0.32985049
7.9010491 7.3730102 1.3269135
7.1599302 6.6767406 1.5505786
6.8859396 6.4190001 1.8298583
6.9755726 6.4979997 2.2009211
6.695364 6.2326183 2.4510164
13.815979 12.825125 0.32904765
14.597615 13.536483 1.7417203
14.579434 13.510161 2.4405556
7.2455115 6.7094245 1.564032
7.280015 6.7390089 1.9283159
7.4488311 6.8904538 2.3426404
6.6943831 6.1882253 2.4427342
14.538474 13.401636 0.34513879
14.669399 13.512842 1.0452538
14.633049 13.474651 1.7403258
6.8845239 6.3350782 1.1487405
7.2441711 6.6613603 1.5587132
7.7183185 7.0948687 2.0378401
7.2302961 6.6416183 2.2666068
6.7130957 6.1622086 2.4416988
14.110207 12.916036 0.33389944
14.681103 13.429214 1.0427418
14.637359 13.384496 1.7352709
6.8391838 6.2494125 1.1375285
7.6335216 6.9703627 1.6372433
7.2282834 6.5980172 1.9023658
7.1972866 6.5651193 2.2490606
6.7359948 6.1400385 2.4422166
14.164083 12.874777 0.33410886
14.674671 13.329536 1.0389736
14.644161 13.297161 1.7305644
6.8638959 6.2281704 1.138016
7.8143849 7.0856547 1.6707202
7.350184 6.662406 1.9283159
7.1797175 6.5033269 2.2364633
6.7416329 6.1022253 2.4365227
13.937293 12.580058 0.3277213
14.670682 13.232752 1.0354146
14.65202 13.211268 1.7260323
6.9003406 6.2174621 1.1404535
7.8287964 7.0490789 1.6685302
7.1531148 6.4339147 2.2211666
6.5445013 5.8823624 2.3578417
13.927509 12.483284 0.32646471
14.671349 13.145374 1.0323793
14.647574 13.114859 1.7201056
6.9811783 6.2462816 1.150203
7.2337337 6.4699783 1.5371252
7.3628492 6.5808372 1.9195386
7.1944227 6.4257836 2.2270155
6.561089 5.8580561 2.3568065
13.800066 12.286766 0.32252049
14.670891 13.052921 1.0291344
14.65157 13.026585 1.715225
7.0448842 6.2613382 1.1572714
7.2296882 6.4210792 1.5314937
7.3816981 6.5537763 1.9187754
7.2113166 6.3980112 2.2256656
6.5150046 5.7761621 2.3329952
14.143992 12.504749 0.32953632
14.678175 12.972458 1.0266222
14.648397 12.937037 1.7098212
7.5623169 6.6741209 1.2384363
7.1294765 6.2899041 1.5058383
7.4104185 6.5331645 1.9203018
7.3578968 6.4822974 2.2639074
6.4369869 5.6689816 2.2983131
14.496406 12.730927 0.33676165
14.673828 12.877673 1.0231681
14.656023 12.852982 1.7054635
7.1067424 6.2302556 1.16044
7.164763 6.2766929 1.5086541
7.4276104 6.5046754 1.919157
7.3661561 6.4463096 2.2598584
6.4363766 5.6286755 2.2910662
14.650781 12.776187 0.33930969
14.655452 12.771257 1.0187719
7.70082 6.7083917 0.89352071
7.1164703 6.1949816 1.1584901
7.1881156 6.2529469 1.508967
7.1050916 6.1785398 1.8302399
7.3650732 6.4001112 2.25266
6.4399419 5.5922399 2.2853725
14.565277 12.612394 0.33630785
14.746767 12.760533 1.0220166
7.7298751 6.6840324 0.89404356
7.1440606 6.175293 1.1594651
7.2517581 6.2639709 1.5177274
7.1262026 6.151176 1.8298583
7.4032426 6.3857965 2.2571588
6.6583977 5.7412968 2.3557711
14.203473 12.208288 0.32691848
14.85332 12.762357 1.0263082
14.953065 12.838978 1.7242892
7.1666451 6.1490693 1.1594651
7.2525892 6.220613 1.5133473
7.153595 6.1313725 1.8313849
7.2611961 6.2192087 2.2072196
6.8456898 5.8612518 2.4147818
14.219539 12.140356 0.32635999
14.955519 12.759686 1.0302857
7.7702856 6.6247349 0.89334637
7.6508183 6.5205746 1.2342927
7.2321486 6.1593976 1.5045868
7.3129096 6.2259774 1.8668753
7.329278 6.2355018 2.2216165
14.29539 12.119092 0.3271279
15.05635 12.755174 1.0341586
7.7815666 6.5899191 0.89212614
7.5886745 6.422019 1.2206435
7.2581315 6.1379404 1.5055255
7.4770303 6.3208237 1.9031291
7.3688655 6.2249689 2.2270155
6.3018675 5.3198419 2.2097969
14.189217 11.944199 0.32374215
15.143583 12.738536 1.0370895
7.8025389 6.556397 1.2513546
7.7757044 6.5292192 1.6081465
7.2685418 6.0990324 1.8443599
7.4364276 6.2354836 2.2405124
6.5558047 5.4951282 2.2921014
14.614996 12.211375 0.33243343
33.857449 28.269102 2.3115747
7.849381 6.5468287 1.2550106
7.1546779 5.9631672 1.4751772
7.2656527 6.0535178 1.838254
6.5447159 5.4451146 2.2812312
14.288175 11.853848 0.3240563
33.998981 28.186428 2.3145056
7.6520295 6.3370619 1.2199122
7.8617954 6.506155 1.6162812
7.3200197 6.0556483 1.8466495
6.5607038 5.4197769 2.280196
14.304768 11.783562 0.3234978
34.126179 28.101465 2.3168082
7.8182354 6.4288263 1.2428237
7.2988667 5.9996285 1.4964522
7.4002814 6.0786576 1.8615327
6.5398121 5.3661284 2.2667372
14.354601 11.744921 0.32374215
34.253197 28.015953 2.3191111
7.7565536 6.3396277 0.87643814
7.7670588 6.3414335 1.5881228
7.5253563 6.1397247 1.8878642
34.420315 27.962667 2.3241353
7.8440471 6.3678694 0.88393348
7.7712841 6.3043013 1.2286868
7.5394893 6.1140809 1.537438
7.7241373 6.2593517 1.9325136
6.6354055 5.3751659 1.9714712
6.3470211 5.1378851 2.1880562
34.534534 27.875803 0.7746774
34.618561 27.933647 2.3312531
7.8418574 6.3230615 0.88131887
7.8261523 6.3058977 1.2340491
7.5166492 6.054348 1.5286777
6.607646 5.3164821 1.957974
6.4423122 5.1797571 2.2149734
15.565656 12.470443 0.34814063
34.85342 27.902864 2.3398364
7.8507662 6.2784052 1.2342927
7.376265 5.8947229 1.4955137
7.7400393 6.1832137 1.9256444
6.4259095 5.1260667 2.2025502
15.587183 12.398601 0.34765193
35.169476 27.955044 2.3544903
7.9581351 6.3188596 1.2476985
7.4788127 5.9340115 1.5120957
6.4982834 5.1467834 2.2211852
34.783924 27.460835 0.77356046
35.262287 27.818542 2.3538623
7.4663682 5.8796749 1.5052127
7.059309 5.5491476 2.405982
20.856609 16.347786 0.4625586
35.830894 28.064743 2.3852639
7.0953898 5.5375447 2.4116762
33.944138 26.405766 0.75066292
18.888411 14.667203 2.9363203
7.0826058 5.487896 2.4008055
35.389225 27.342047 0.78061122
37.823112 29.211924 2.5045898
7.06249 5.434927 2.3878646
15.56481 11.943297 0.34245113
37.807556 28.989794 2.4968441
21.258175 16.194395 0.46646792
37.81316 28.785063 2.4905636
6.8970909 5.2313809 2.3195364
20.966887 15.857128 0.45885867
37.808239 28.573425 2.4836555
21.466663 16.11763 0.46856222
37.805511 28.364553 2.4769564
6.992239 5.2270594 2.3392065
38.917332 28.997509 0.84713978
37.821003 28.170366 2.4715135
6.9840693 5.1830506 2.3304069
21.565804 15.957856 0.46828297
39.295113 29.066271 2.5615313
21.58638 15.862565 0.46758488
37.615841 27.62149 2.4457641
35.790398 26.1084 0.77328122
37.825016 27.572363 2.4530911
18.604712 13.472519 0.40095159
33.024754 23.897161 2.136354
18.586674 13.36081 0.39955539
37.880325 27.209745 2.4442987
37.903511 27.02634 2.4396932
34.466488 24.21447 2.2075307
40.933441 28.54496 2.6153328
34.169659 23.484167 0.72371638
19.995138 13.639771 0.42248788
33.032909 22.51663 2.0951133
13.044813 8.8818979 1.9377227
13.044482 8.8750095 2.4988844
20.019447 13.55419 0.42199919
13.030461 8.8156567 0.82450074
13.074493 8.8421211 1.3808956
13.037907 8.8107471 1.9321167
13.059013 8.8183632 2.4957557
13.029468 8.7620487 0.27407259
13.043175 8.7646475 0.82355869
13.079052 8.7854519 1.3784552
13.090248 8.786335 1.9357728
13.101417 8.787199 2.4985716
13.048333 8.7087402 0.27382827
13.093628 8.7323656 0.8248148
13.117802 8.7418652 1.3791524
13.0935 8.669692 0.27410749
32.969135 21.656698 2.0672703
34.105652 22.250153 0.7108016
32.967571 21.491301 2.0624554
34.13274 22.098387 0.70975447
33.018917 21.360895 2.0609901
34.118828 21.920729 0.70786959
32.955456 21.15704 2.052407
34.087223 21.732706 0.70563573
34.108799 21.579361 0.70451874
34.109409 21.41338 0.70298296
33.885818 21.256527 2.0963693
34.119442 21.254015 0.70165658
33.83094 21.057911 2.0884142
34.070957 21.059078 0.69914341
33.883839 20.927101 2.0871582
34.069241 20.894041 0.69760758
33.929443 20.791992 2.0854836
34.063393 20.727167 0.69600195
33.899414 20.611177 2.0792031
34.087608 20.579191 0.69502461
32.856071 19.82789 2.0111663
34.056179 20.406416 0.69300014
33.908573 20.309952 2.0714574
34.044586 20.246372 0.69139451
33.917458 20.154726 2.0676892
34.046169 20.08676 0.68999839
34.053951 19.931419 0.68874174
34.005718 19.74416 0.68636829
33.860603 19.644102 2.0515697
34.01894 19.585457 0.6851815
34.022442 19.57959 2.0572219
34.024651 19.438833 0.68399471
33.980961 19.25684 0.68176085
34.006287 19.122477 0.6809929
32.815331 18.437723 1.9726471
33.995804 18.952925 0.67938727
34.913662 19.448647 2.094485
33.988258 18.793491 0.6779213
35.121178 19.403948 2.1028588
33.987011 18.63822 0.67659491
37.784393 20.712076 2.2581921
33.981888 18.489086 0.67526853
34.894489 18.969818 2.081506
34.978062 18.857401 2.0825527
33.936989 18.151133 0.67177802
33.96796 18.007887 0.67107999
38.07695 20.177729 2.2584014
33.970848 17.865364 0.66996294
38.419437 20.196333 2.2747302
33.944801 17.708229 0.66828758
32.800911 17.096905 1.938524
33.97089 17.571247 0.66758949
35.823498 18.513653 2.1133261
33.971527 17.421528 0.6664027
39.350494 20.162666 2.3172269
33.992908 17.282906 0.66563481
39.385025 20.007103 2.3151336
34.078033 17.176735 0.66612345
34.202171 17.089876 0.66738003
39.380779 19.660286 2.3067598
34.358387 17.018305 0.66926491
27.101387 13.412008 1.5847329
27.051931 13.381657 2.6404703
27.172913 13.341288 0.52838904
27.11397 13.300605 1.5827441
27.064491 13.270473 2.6371584
27.177958 13.226234 0.52758628
27.120722 13.186659 1.5804414
27.058678 13.150668 2.6321032
27.175335 13.107821 0.52664381
27.123396 13.071117 1.5779293
27.064932 13.037107 2.6282685
27.181231 12.993913 0.52587593
27.129211 12.957415 1.5756264
27.074312 12.925392 2.6247823
27.172203 12.873275 0.52482873
27.120115 12.837008 1.5724863
27.141319 12.835435 2.6266997
27.186623 12.758299 0.5242005
27.123177 12.722748 1.5700788
27.409664 12.845462 2.6483145
27.192518 12.65121 0.52350241
27.352161 12.713856 1.5807555
27.627815 12.83026 2.6650481
27.207458 12.54281 0.52294391
27.586443 12.711702 1.5918506
27.412596 12.527315 0.52608532
35.4104 16.167324 2.0400558
33.063538 14.949623 1.9016795
36.530045 16.378937 0.69879436
36.27615 16.249914 2.0831807
34.382992 15.27237 0.65669918
32.751987 14.541042 1.8780237
34.700661 15.275888 0.66179526
36.334721 15.980117 2.0802498
34.189365 14.894362 1.9544342
36.524746 15.775427 0.69446617
35.43314 15.289255 2.022471
36.524441 15.624231 0.69341904
36.298054 15.512403 2.0687361
33.949413 14.382727 0.64357495
36.307838 15.366912 2.0662239
33.802734 14.174671 0.6398052
35.418148 14.844802 2.0126317
33.746147 14.019528 0.63785052
36.255592 15.047219 2.0572219
33.746792 13.881875 0.63694304
36.274643 14.906915 2.0553379
33.765415 13.751914 0.63638455
36.27095 14.757627 2.0521977
33.772404 13.617539 0.63561666
32.717075 13.178722 1.8485062
33.741734 13.468423 0.63415068
36.354546 14.496651 2.051151
33.743908 13.332916 0.63331294
36.298386 14.33494 2.0452893
33.516056 13.11455 0.62821686
36.288681 14.18487 2.04194
33.643673 13.029275 0.6297527
36.241116 14.02063 2.0364969
33.741234 12.931787 0.63072997
36.259991 13.88262 2.0348222
33.724827 12.78394 0.62954324
36.214848 13.720575 2.0295887
33.725849 12.656568 0.6287753
36.26252 13.594086 2.0295887
33.739834 12.527619 0.62821686
36.309746 13.467431 2.0295887
33.745815 12.395987 0.62751871
36.247784 13.300688 2.0235176
33.732494 12.257618 0.62647158
33.729908 12.123587 0.6256339
32.659164 11.725839 1.81857
33.715496 11.985668 0.62458676
33.711857 11.851979 0.62374902
33.703915 11.717166 0.62284154
33.731236 11.601439 0.62263209
34.965206 12.019008 1.9376867
33.720299 11.472763 0.62172449
34.938862 11.87377 1.9339186
33.688122 11.330753 0.6203981
32.927788 11.062245 1.820454
33.67054 11.194172 0.61935103
33.686607 11.069088 0.61893213
34.738689 11.401357 1.9161243
33.683197 10.937852 0.61816424
34.846668 11.3022 1.9198924
33.664051 10.80187 0.61711711
33.64056 10.664949 0.61600012
33.64323 10.536705 0.61537188
32.679508 10.222354 1.7944955
33.656879 10.412103 0.61495298
