# .PCD v0.7 - Point Cloud Data file format
VERSION 0.7
FIELDS x y z
SIZE 4 4 4
TYPE F F F
COUNT 1 1 1
WIDTH 1483
HEIGHT 1
VIEWPOINT 0 0 0 1 0 0 0
POINTS 1483
DATA ascii
-4.6236992 3.0095527 1.2736728
-4.5874424 2.9882352 1.4669864
-4.8669782 3.1897159 1.1311158
-4.9841166 3.267729 -0.31234103
-4.6001296 3.0171244 1.2700737
-4.9923978 3.2756507 -0.10422577
-4.5899048 3.0127096 1.4711276
-4.8949547 3.2288518 0.72000414
-4.7558804 3.1406908 1.1078371
-4.9760122 3.2873092 -0.31255037
-4.5852213 3.0291405 1.268724
-4.5943918 3.0375025 1.4757862
-4.7290931 3.1455705 1.104021
-4.8969092 3.2584288 -0.3082588
-4.5719061 3.0421698 1.2678242
-4.5617833 3.0377302 1.4685394
-4.8271093 3.2326882 0.92014766
-4.6860147 3.1393812 1.0963886
-4.8578725 3.2557466 -0.30647939
-4.5693521 3.0635362 1.2700737
-4.8377495 3.2447064 -0.10167772
-4.6137152 3.0956147 1.4887272
-4.9895077 3.3629305 0.52642071
-4.7797718 3.2252095 0.91326451
-4.659833 3.1466484 1.0929539
-4.5710106 3.0889912 1.2736728
-4.9059229 3.3153176 -0.10335316
-4.6204863 3.1236019 1.4944212
-4.8901992 3.3171401 0.10314372
-4.8417611 3.2904563 0.71878546
-4.756484 3.2349315 0.91107446
-4.6423287 3.1584766 1.0914276
-4.917007 3.3466134 -0.31171298
-4.5569777 3.1027358 1.2727731
-4.8970437 3.3355277 -0.10342296
-4.6313577 3.1557443 1.5016681
-4.8351593 3.3107018 0.71951669
-4.7109437 3.2280655 0.90450418
-4.628036 3.172442 1.0906643
-4.5445127 3.1175206 1.2723231
-4.6410179 3.1861069 1.5083975
-4.888402 3.3697641 0.51944822
-4.6839552 3.2324502 0.90137547
-4.6153188 3.1874621 1.0902827
-4.5352063 3.1344731 1.2727731
-4.7689438 3.2960191 -0.10118905
-4.6399617 3.2080708 1.5115032
-4.8373346 3.3595312 0.51526475
-4.7619748 3.3084257 0.71196079
-4.6758866 3.2510359 0.90200126
-4.6746936 3.2514169 -0.49818221
-4.5950522 3.1960235 1.0879929
-4.5343833 3.1561747 1.2754724
-4.6445861 3.2352908 1.5166796
-4.9866133 3.4838877 0.10618044
-4.9046254 3.427881 0.31359708
-4.816371 3.3687024 0.51421887
-4.7341347 3.3136435 0.70952338
-4.6602259 3.2631249 0.90106261
-4.6328807 3.245183 -0.49487031
-4.5806537 3.2097895 1.0872297
-4.968524 3.4828758 -0.31799328
-4.5329118 3.1786969 1.2781719
-4.6623006 3.270643 1.5259972
-4.9586787 3.4888968 0.10583139
-4.8697681 3.4288816 0.31213167
-4.7931814 3.3774605 0.5129987
-4.71663 3.3247495 0.70854843
-4.6455789 3.2770951 0.90043688
-4.6443157 3.2774162 -0.49731067
-4.581213 3.2328858 1.0899011
-4.5255299 3.1959596 1.2790717
-4.6760969 3.304738 1.5342795
-4.925261 3.4911532 0.10537763
-4.8317051 3.4273705 0.31045693
-4.7787056 3.391031 0.51265007
-4.7049952 3.3411934 0.70854843
-4.637332 3.2955787 0.90106261
-4.5811009 3.2568209 1.0925723
-4.9772544 3.5397658 -0.32008675
-4.5095825 3.2083483 1.277722
-4.8696737 3.465816 -0.10433049
-4.788857 3.4095569 1.5751728
-4.8983989 3.4978645 0.10506349
-4.8164616 3.4418933 0.3102476
-4.7451777 3.393456 0.51038402
-4.6771584 3.3460479 0.70611101
-4.6145568 3.3036969 0.89887255
-4.6342793 3.3190417 -0.49870515
-4.5787077 3.2804508 1.0948621
-4.9545074 3.5510023 -0.31945869
-4.5152135 3.2373457 1.2826709
-4.891674 3.5072627 -0.10506349
-4.8693151 3.5041142 0.10471445
-4.8038139 3.4595234 0.3102476
-4.7333031 3.4099989 0.51038402
-4.6793561 3.3736155 0.7083047
-4.6232419 3.3356147 0.90293986
-4.5913887 3.3138494 -0.49539325
-4.5799651 3.3056045 1.0979151
-4.9161725 3.5495701 -0.31778398
-4.5228429 3.2667797 1.2880697
-4.82692 3.48769 -0.10394654
-4.837625 3.5070055 0.10429558
-4.7820091 3.4692342 0.30961955
-4.7207732 3.4273245 0.51038402
-4.6482768 3.3759305 0.70537978
-4.6147666 3.354054 0.90356559
-4.5910735 3.338058 -0.49661341
-4.5789313 3.3304534 1.1005863
-4.9095902 3.5722642 -0.31820264
-4.5376244 3.3028297 1.2957181
-4.8422008 3.5245237 -0.10453992
-4.8388901 3.5324595 0.10457481
-4.7672524 3.4827163 0.30941018
-4.7083745 3.4409618 0.51020968
-4.6402607 3.3936701 0.70586729
-4.613183 3.3763385 0.90544277
-4.5478272 3.3297246 -0.4931272
-4.5969601 3.3656974 1.1074555
-4.8935089 3.5841317 -0.31788865
-4.527226 3.3170688 1.2957181
-4.8256478 3.5370152 -0.1044352
-4.8249183 3.5481458 0.10453992
-4.7518506 3.4969676 0.30920088
-4.7101688 3.4688301 0.51177853
-4.6363783 3.4157329 0.70708597
-4.6029596 3.3935938 0.9057557
-4.8706985 3.5949256 -0.31726059
-4.5181723 3.3359563 1.2966179
-4.7457047 3.5039532 -0.10296919
-4.737947 3.499501 1.5782787
-4.8150954 3.5681865 0.10460973
-4.7492409 3.5206695 0.30982888
-4.6916318 3.4805012 0.51108128
-4.6333899 3.4398041 0.70854843
-4.6101155 3.4237735 0.90951008
-4.9350548 3.6691051 -0.32228485
-4.515883 3.3586841 1.2993174
-4.7847915 3.5586846 -0.10408615
-4.7179527 3.510252 1.5756904
-4.8016334 3.5829384 0.10457481
-4.7561255 3.5515673 0.31108496
-4.6842418 3.5004351 0.51160419
-4.6648865 3.4872417 0.71512938
-4.6266088 3.4611437 0.91514176
-4.8365226 3.6208143 -0.31663257
-4.5421553 3.4016767 1.310115
-4.7115264 3.5298042 -0.10275977
-4.7056708 3.5266998 1.5756904
-4.7954917 3.6044836 0.10471445
-4.7516799 3.574151 0.31160831
-4.7092247 3.5435021 0.51561338
-4.6970868 3.5369389 0.72195405
-4.999454 3.7687273 1.2169799
-4.8637214 3.6677377 -0.31924936
-4.5893707 3.4621079 1.3272111
-4.6624632 3.5185239 -0.10195696
-4.6763721 3.5302997 1.5699965
-4.7956347 3.6308577 0.10499368
-4.7646461 3.6100128 0.31328306
-4.7396984 3.5924132 0.52031976
-4.9753242 3.7778435 1.2143085
-4.8731542 3.701607 -0.32071477
-4.5120902 3.4285882 1.3083154
-4.5912504 3.4900019 -0.10066548
-4.6440287 3.5314016 1.5632671
-4.8004212 3.6609156 0.10537763
-4.7885332 3.6544919 0.31569052
-4.9964142 3.8214276 1.2227042
-4.6809597 3.581454 -0.30888686
-4.4722404 3.4229965 1.300217
-4.5917416 3.5157337 -0.10094472
-4.4844413 3.4348195 1.5135738
-4.7971287 3.684958 0.10558706
-4.8461809 3.7334096 1.1891217
-4.6684303 3.5977707 -0.30888686
-4.4633517 3.4409664 1.3011169
-4.6712828 3.6025705 -0.10296919
-4.4479527 3.4315705 1.5052917
-4.7953072 3.7102463 0.10583139
-4.7028303 3.6492028 1.1570657
-4.7284184 3.6703804 -0.31370175
-4.5054965 3.4998608 -0.099583432
-4.4405231 3.4506321 1.5068446
-4.7286987 3.6851699 0.10464463
-4.6281896 3.617238 1.1418011
-4.827291 3.7742062 -0.32113346
-4.4979773 3.5192635 -0.09968815
-4.4984298 3.5208838 1.530656
-4.8652406 3.8189497 0.10796059
-4.5831399 3.6078699 1.1337872
-4.7450452 3.7366645 -0.3165279
-4.5029416 3.548558 -0.1000721
-4.483078 3.5341728 1.5296206
-4.8581543 3.8408716 0.10810021
-4.5782104 3.6299438 1.1356952
-4.7053714 3.732106 -0.31474847
-4.45609 3.5356536 1.3132643
-4.4216099 3.5095549 -0.09853629
-4.7054925 3.7469428 0.10499368
-4.7031398 3.7477505 0.31516716
-4.6636939 3.7243106 1.1601188
-4.7516127 3.7958786 -0.318726
-4.4559007 3.5609181 1.3168634
-4.4561915 3.5624268 -0.099583432
-4.7220249 3.7871151 0.10565687
-4.7009315 3.7728968 0.31589985
-4.6139493 3.711036 1.1509598
-4.8270326 3.8838067 -0.32469231
-4.4297109 3.566673 -0.099269286
-4.2833366 3.4500477 1.4737157
-4.8270016 3.8990726 0.10830963
-4.5963912 3.7234113 1.1498151
-4.8305149 3.9144647 -0.32584369
-4.5368986 3.6778429 1.3483566
-4.4318395 3.5926766 -0.099583432
-4.5959764 3.7270622 1.5855255
-4.8342133 3.9314606 0.1087634
-4.9601736 4.0367761 0.33515951
-4.6813893 3.8180466 1.1742386
-4.5186381 3.6879385 1.3465569
-4.6361299 3.7851794 -0.1044701
-4.6218405 3.7748554 1.5989841
-4.7910671 3.9242361 0.10810021
-4.9143171 4.0266204 0.33296138
-4.6741014 3.8393488 1.175765
-4.4380364 3.6467407 -0.30103645
-4.5102534 3.707402 1.3479067
-4.6189184 3.7967236 -0.10436539
-4.7872844 3.947736 0.10830963
-4.6931157 3.8811023 1.1837791
-4.4228411 3.6588912 -0.30082709
-4.5264592 3.7459445 1.3564548
-4.6364446 3.8383262 -0.10506349
-4.6780987 3.8852098 0.10614554
-4.3861513 3.653106 -0.4994024
-4.4391975 3.6985977 -0.30281588
-4.5385437 3.7840562 -0.10314372
-4.5847464 3.8348014 0.10433049
-4.9622445 4.1534953 0.33913705
-4.43326 3.7212651 -0.30333924
-4.4579263 3.7432959 -0.10160792
-4.6975808 3.9585321 0.10722758
-4.9293909 4.155344 0.33788097
-4.3118367 3.6424944 -0.49382445
-4.3622823 3.6877196 -0.29936171
-4.4677358 3.778203 -0.10213149
-4.7027264 3.9896121 0.10764644
-4.9087644 4.1673565 0.33746228
-4.8116498 4.0892463 0.77533287
-4.3431029 3.6949639 -0.49887949
-4.4260793 3.7668886 -0.30459529
-4.4347286 3.7769196 -0.10167772
-4.6720476 3.991715 0.10726249
-4.8964372 4.1849079 0.33756694
-4.4280682 3.7953119 -0.30564201
-4.4662042 3.8293524 -0.10268996
-4.6648488 4.0124025 0.10740211
-4.4390516 3.828984 1.1395113
-4.3201933 3.7277739 -0.29904768
-4.4588637 3.8501465 -0.10282958
-4.680337 4.0556626 0.10810021
-4.7685647 4.1394076 0.77533287
-4.4146156 3.8362131 1.13684
-4.360765 3.7907555 -0.30281588
-4.447741 3.8690872 -0.10289939
-3.8211012 3.3251472 1.3572472
-4.6797104 4.0838099 0.10841435
-4.962822 4.336977 0.57662237
-4.7933059 4.1932664 1.0086895
-4.4069438 3.8593457 -0.30700275
-4.4266858 3.8780015 -0.10272487
-3.8269064 3.3537433 1.3634588
-4.651196 4.0890503 0.10810021
-4.911757 4.3226833 0.5724389
-4.8016157 4.2317033 1.0136955
-4.3844581 3.8667791 -0.3063747
-4.4754143 3.9497738 -0.10419086
-3.8406558 3.3907623 1.3727763
-4.5949717 4.0681458 0.10712288
-4.8136892 4.2647867 0.33704361
-4.9389887 4.3834972 1.045921
-4.2260261 3.7507222 -0.49434736
-4.3126945 3.8303349 -0.30229253
-4.3868661 3.8989506 -0.10244562
-3.8360155 3.4105651 1.3753644
-4.531487 4.0402465 0.10597102
-4.7510839 4.2390132 0.3336941
-4.3603334 3.8999569 -0.30658406
-4.2704172 3.8222184 -0.10003719
-4.5218196 4.0600471 0.10607573
-4.7392278 4.2582421 0.33390343
-4.3229489 3.8937666 -0.30490932
-4.5080752 4.063365 -0.1059361
-4.5447025 4.1093349 0.10694835
-4.7561874 4.3020697 0.33610156
-4.8745589 4.4168792 1.0418537
-4.1865172 3.7947707 -0.49434736
-4.2605133 3.8645511 -0.30145514
-4.5626979 4.1401048 -0.10754173
-4.5103469 4.1055384 0.10645968
-4.7972484 4.3697553 0.34007907
-4.9787655 4.5430498 1.0675089
-4.2668476 3.8961658 -0.30281588
-4.3828826 4.0049281 -0.10363239
-4.5122032 4.1361208 0.10684364
-4.7245655 4.3338189 0.33599687
-4.1599236 3.8239048 -0.49434736
-4.2767444 3.9326665 -0.30449063
-4.3129601 3.9687479 -0.10230601
-4.5462275 4.1966062 0.10799549
-4.7578235 4.3950071 0.33945104
-4.9597616 4.5847559 0.59091592
-4.993268 4.6173449 0.83504879
-4.9875236 4.6152635 1.0762693
-3.9871802 3.6908758 -0.47534743
-4.9970899 4.6273546 1.3238329
-4.244719 3.9320281 -0.30323455
-4.2609444 3.9484398 -0.10139848
-4.5662489 4.2328362 1.6683476
-4.5147071 4.1982622 0.10761154
-4.7065916 4.3797617 0.33693892
-4.9291444 4.5884657 0.58917278
-4.9590149 4.6227374 1.0737664
-4.0005045 3.7292249 -0.47848502
-4.975163 4.6394138 1.3223064
-4.1710887 3.8909638 -0.29894301
-4.3780022 4.0868416 -0.10453992
-4.5605888 4.2587729 1.6719712
-4.5044036 4.2180963 0.10771625
-4.6737866 4.379776 0.33568287
-4.8869333 4.5811167 0.58603519
-4.9212446 4.6197395 1.0690732
-4.0499253 3.8018029 -0.48598042
-4.9532137 4.6513767 1.3207799
-4.1953297 3.9410543 -0.3016645
-4.3899369 4.1267514 -0.10516821
-4.6005812 4.3262796 1.6921589
-4.4081817 4.1569648 0.10576159
-4.6301794 4.3678398 0.3335894
-4.8709135 4.5981464 0.58603519
-4.0713787 3.8487651 -0.49016386
-4.9554911 4.6861744 1.3257409
-4.1452751 3.9213598 -0.29904768
-4.3762274 4.1412864 -0.10516821
-4.3885713 4.1660528 0.10562197
-4.5678778 4.3377838 0.33013523
-4.9206309 4.6760349 0.59387922
-4.9706469 4.7285204 1.0865939
-3.8998291 3.7111619 -0.47098961
-4.9527221 4.7147646 1.3291756
-4.2320471 4.0301218 -0.30627003
-4.9999638 4.7613988 1.5940032
-4.3060031 4.101984 -0.10380692
-4.3776231 4.1833463 0.10569178
-4.5873504 4.3868327 0.33264738
-4.9482884 4.7336454 0.59910858
-4.9127436 4.7062144 1.0775207
-4.0479636 3.8791461 -0.49051252
-4.9022207 4.6994162 1.3200166
-4.1487594 3.9785154 -0.30124578
-4.9819059 4.7774739 1.5935532
-4.4114318 4.2318892 -0.10670401
-4.9942255 4.7926373 1.8546973
-4.3262448 4.1646919 0.10481916
-4.566927 4.3994589 0.33233336
-4.9423814 4.7628107 0.60050309
-4.9969287 4.8187385 0.85235429
-4.0566549 3.9160967 -0.49330151
-4.9033213 4.7350826 1.3249778
-4.1513863 4.0103478 -0.30250186
-4.9685659 4.7997646 1.594903
-4.3872643 4.2396908 -0.10649458
-4.331049 4.2000103 0.10530782
-4.5171366 4.3819976 0.32982123
-4.8248224 4.6837482 0.58830124
-4.0558171 3.942733 -0.49487031
-4.8966155 4.7617507 1.327649
-4.1359315 4.0234203 -0.30239719
-4.9336233 4.7994127 1.5890542
-4.3824692 4.2647429 -0.10673892
-4.9473438 4.8161244 1.8500385
-4.4215546 4.3163209 0.10785587
-4.800714 4.6913671 0.58725542
-4.0085444 3.9227154 -0.4906868
-4.875186 4.772469 1.3261225
-4.1853538 4.0985994 -0.30700275
-4.2783093 4.1910915 -0.10453992
-4.9147882 4.8162789 1.843827
-4.5683866 4.4893408 0.11180011
-4.6623645 4.5848904 0.34269586
-4.78371 4.7058644 0.58708107
-3.9834738 3.9254978 -0.48929232
-4.8626928 4.7935915 1.3272674
-4.1781321 4.1201968 -0.30752611
-4.2793117 4.2214484 -0.10492387
-4.8704462 4.8062654 1.8334742
-4.5860105 4.5398178 0.11263783
-4.6744423 4.6322069 0.57575083
-3.9846137 3.9555106 -0.49120975
-4.934247 4.8999181 1.351691
-4.1573348 4.1298528 -0.30710742
-4.2638111 4.2371039 -0.10492387
-4.317296 4.3052568 0.10642478
-4.7053742 4.6971684 0.58167744
-4.971601 4.9663973 0.86283505
-4.9883251 4.9848433 1.1169422
-3.951055 3.9496758 -0.48876941
-4.9240541 4.9240537 1.3535991
-4.1231246 4.1245632 -0.30564201
-4.1754928 4.1784081 -0.10310882
-4.4088416 4.4258037 0.10904264
-4.6532311 4.6760273 0.57714534
-4.9257107 4.9532957 0.8577165
-3.9491704 3.974062 -0.49016386
-4.9270687 4.9598546 1.3589417
-4.0615754 4.0900292 -0.30208316
-4.1334376 4.1638489 -0.10241073
-4.3122811 4.3455243 1.6403952
-4.4349322 4.4816184 0.11005487
-4.7567582 4.8118706 0.5919618
-4.8422947 4.9018168 0.84601706
-3.9541664 4.005569 -0.49242991
-4.0143266 4.0693512 -0.29957107
-4.0999498 4.157599 -0.10192205
-4.3249722 4.3873153 1.6507479
-4.4480834 4.5248213 0.11075297
-4.6938567 4.7765017 0.35096496
-4.6542253 4.7394805 0.58115447
-4.8093281 4.9008455 0.8430922
-3.9506266 4.0286174 -0.49365011
-4.0077991 4.0897737 -0.3000944
-4.0805426 4.1654582 -0.10178243
-4.752388 4.8529768 1.8200157
-4.4354668 4.548368 0.11089259
-4.6732507 4.7938762 0.3508603
-4.674089 4.7980876 0.58603519
-4.4766779 4.5986471 0.7880072
-3.9121957 4.0215926 -0.49086115
-3.9927418 4.1072607 -0.30019906
-3.9968956 4.1129675 -0.100107
-4.6722932 4.8096604 1.7967219
-4.4064479 4.548687 0.11054354
-4.6856604 4.8402948 0.3530584
-4.4365644 4.5877819 0.78361994
-3.9022868 4.0395236 -0.49138409
-3.9860365 4.1276622 -0.30072245
-4.0241723 4.170063 -0.10115415
-4.674253 4.8454056 1.8039688
-4.3295431 4.5006328 0.10900773
-4.6391268 4.8241348 0.3507556
-4.7269144 4.9188585 0.59684253
-4.4315224 4.6146946 0.78556985
-4.7975416 4.9975882 1.0972315
-3.864038 4.0265665 -0.48824647
-3.9895761 4.1602907 -0.30208316
-4.6876016 4.8898921 1.5638597
-4.017241 4.1906028 -0.10132867
-4.6461296 4.8483267 1.79931
-4.4458432 4.652307 0.11232369
-4.659502 4.8792992 0.35358176
-4.6945848 4.9194736 0.59492511
-4.390161 4.6020746 0.78093886
-4.3779798 4.5925131 1.0049351
-3.8513334 4.041472 -0.48842075
-4.6672449 4.8976645 1.3150556
-4.0060654 4.2053123 -0.30438596
-4.6632967 4.8969426 1.5611603
-4.0067248 4.2089453 -0.10143339
-4.5546002 4.7861443 1.7703223
-4.1487699 4.3718915 0.10520311
-4.6177053 4.8694463 0.35169765
-4.6563139 4.9118791 0.59213609
-4.4013748 4.6461926 0.78581363
-4.3931565 4.6407623 1.0121311
-3.8790011 4.0976281 -0.49365011
-4.6555181 4.9196305 1.3165821
-3.914499 4.1380191 -0.29852432
-3.8408999 4.0630574 -0.097593859
-4.4954062 4.7570829 1.753758
-4.1403403 4.3936234 0.10537763
-4.6403866 4.9277039 0.35473314
-4.5995359 4.8860321 0.58708107
-4.4286532 4.7077971 0.7936132
-4.3566365 4.634479 1.0074381
-3.8906033 4.1387248 -0.49696201
-4.6127725 4.908669 1.3093314
-3.8931932 4.1443796 -0.29800096
-4.6143227 4.9137521 1.5562114
-3.7609994 4.0064583 -0.095918424
-4.4721637 4.7657022 1.7511697
-4.3859506 4.6869273 0.11204445
-4.6504402 4.9730477 0.35682657
-4.556602 4.8744025 0.58376914
-4.5978413 4.9219627 0.82700545
-4.3862619 4.6987548 1.0180756
-3.8468614 4.1223679 -0.49330151
-3.8923273 4.1725478 -0.29904768
-3.9474304 4.2345819 -0.10104944
-4.4238935 4.7473631 1.7387464
-4.1041226 4.4165606 0.10523801
-4.5868459 4.9394889 0.35326776
-4.5454807 4.8983736 0.58464068
-4.4604812 4.8084559 0.80531269
-4.5336685 4.8907776 1.0562457
-3.7511954 4.0480857 -0.48284283
-4.553514 4.9156265 1.3024622
-3.9231458 4.2366118 -0.30260652
-3.8891563 4.2013755 -0.099932484
-4.5057001 4.8691211 1.7775693
-4.4901953 4.8710942 0.34719676
-4.521605 4.9068837 0.58376914
-4.4455152 4.8276939 0.8058002
-4.3311257 4.7067637 1.0130697
-3.793705 4.1227322 -0.49016386
-4.5416436 4.9372711 1.3039887
-3.8677771 4.2061744 -0.29946637
-4.0428596 4.3996577 -0.10429558
-4.4904385 4.8884473 1.7786045
-4.5735292 4.9928799 0.1181877
-4.475863 4.8896842 0.34740612
-4.242713 4.6431084 0.99617481
-3.8007936 4.1594839 -0.49295285
-4.5098176 4.9371481 1.299791
-3.8934739 4.2638965 -0.30260652
-4.0867839 4.4787378 -0.10583139
-4.5189137 4.9540462 1.7967219
-4.071866 4.4796314 0.31726059
-4.2729402 4.7090902 1.0071251
-3.8237398 4.2140388 -0.49783361
-4.4951944 4.9557691 1.3005542
-3.8436849 4.2389927 -0.29988506
-4.2698483 4.7122898 -0.1109973
-3.692776 4.0883079 0.096162759
-4.2591205 4.7269125 1.007751
-4.4844375 4.9787235 1.3024622
-3.9290953 4.3637033 -0.30773544
-4.4091444 4.8985686 1.5215689
-4.1543961 4.6171627 -0.10841435
-3.6931686 4.1175489 0.09654671
-4.4479413 4.960794 0.34918553
-4.3595848 4.8656654 0.57156736
-4.219708 4.7145157 1.0021193
-3.3784029 3.7758842 -0.44327411
-4.4408531 4.9650817 1.2948298
-4.052289 4.5322375 -0.31862134
-4.3764348 4.8964939 1.5161701
-4.0924206 4.5787301 -0.10719268
-4.1638575 4.6849217 0.99273324
-3.0648093 3.4495497 -0.40370542
-3.9921434 4.4948783 -0.31506249
-4.0419016 4.5541015 -0.10628515
-4.3963304 4.9551883 1.774981
-4.3474746 4.9191136 0.57435632
-4.1788507 4.734973 1.0002421
-3.0665371 3.4746327 -0.40544853
-3.947365 4.4758315 -0.3127597
-3.9810257 4.5171762 -0.1050984
-4.2231336 4.8104787 0.33547351
-4.3250217 4.9282689 0.57365906
-4.2820749 4.8862081 1.029026
-3.4614661 3.9498243 -0.45948508
-3.9764557 4.5406694 -0.31631854
-3.895437 4.4512892 -0.10324844
-4.3603578 4.9843059 1.7744634
-4.2269373 4.8556828 1.01964
-3.4476566 3.961884 -0.45948508
-3.8609781 4.43998 -0.30836347
-4.0630112 4.6739597 -0.10810021
-4.2177486 4.8708191 0.33767161
-4.2566137 4.9191709 0.56912696
-4.1414971 4.791203 1.0030578
-3.4338059 3.9738944 -0.45948508
-3.8201218 4.4225302 -0.30627003
-3.9800322 4.6109118 -0.10632006
-4.1238942 4.7961612 0.33149597
-4.04884 4.7171922 0.98459864
-3.0825937 3.5927141 -0.4141641
-3.8137627 4.4464498 -0.30700275
-3.9691193 4.6308494 -0.10645968
-4.2216334 4.9411483 0.11344065
-4.0967536 4.7983751 0.33065861
-4.0720692 4.777904 0.99429762
-3.0674503 3.6004183 -0.41381544
-3.9061966 4.5881438 -0.31579518
-3.9244182 4.6111722 -0.10569178
-4.1204586 4.8621173 0.33400813
-4.1636558 4.9148288 0.56354898
-4.049428 4.7867637 0.99304616
-3.0535762 3.6095836 -0.41364115
-3.868238 4.5758204 -0.31401578
-3.9010379 4.617888 -0.10551725
-4.0725994 4.8397927 0.33149597
-3.9399431 4.6904535 0.97020662
-3.040957 3.6202214 -0.41364115
-3.7995956 4.5265737 -0.30972421
-3.90674 4.6575236 -0.10611063
-4.0492768 4.8463173 0.33097261
-4.0222373 4.8225021 0.99461043
-3.136775 3.7608681 -0.42845765
-3.8681669 4.6410704 -0.31663257
-3.962126 4.7571788 -0.1080653
-4.0325665 4.8572483 0.11019449
-4.0782452 4.9157586 0.33474082
-4.0671177 4.9110603 1.009941
-3.2087722 3.8746049 -0.44013649
-3.7717192 4.5576077 -0.31003824
-3.9467714 4.7725201 -0.10810021
-4.0344944 4.9046893 1.0058737
-3.1224937 3.7959802 -0.43002641
-3.8288765 4.6580348 -0.31600451
-3.9156909 4.7670398 -0.10768134
-3.9335358 4.8041296 0.10837945
-3.8936436 4.7672782 0.97489971
-3.0562916 3.7420456 -0.42270535
-3.7822859 4.6342354 -0.31349242
-3.8345709 4.7016463 -0.1059012
-3.8738518 4.7650757 0.10719268
-3.0601199 3.7748909 -0.42514572
-3.8327303 4.7296519 -0.31904003
-3.8206515 4.7181125 -0.10597102
-3.0094478 3.7389867 -0.41991636
-3.9333713 4.8886304 1.2196511
-3.8153706 4.7436671 -0.31904003
-3.5895813 4.4661326 1.5353146
-2.9851828 3.7354617 -0.41834757
-3.972651 4.9728889 1.2372056
-3.5414357 4.4378648 1.5213385
-3.7910876 4.7763076 0.96582651
-2.9634573 3.7349334 -0.41712737
-3.7321064 4.7053709 -0.31474847
-3.7768385 4.7926145 0.96645224
-2.976294 3.7781208 -0.4207879
-3.0606565 3.8893986 -0.086389415
-3.7819951 4.8337731 0.97208387
-3.0269148 3.8700955 -0.4298521
-3.859822 4.9421239 1.6802533
-3.8822267 4.9887342 0.33128664
-3.7844892 4.8719049 0.97708976
-2.9315159 3.7752025 -0.41817325
-3.8366294 4.9479327 1.6776651
-3.7746968 4.8944716 0.97896701
-3.0399663 3.9432044 -0.43560439
-3.7071526 4.8417435 0.96582651
-3.0159729 3.9390254 -0.43403557
-3.6882548 4.8205471 -0.31809795
-3.7009866 4.8688087 0.96864235
-3.0624893 4.0288382 -0.44275117
-3.6827798 4.8801203 0.96832943
-2.8929179 3.8348517 -0.42026496
-3.68698 4.8892345 -0.32092413
-3.5591276 4.7506628 0.94017124
-2.8854849 3.852901 -0.42113656
-3.7334948 4.9924779 1.6704183
-2.8292241 3.8053887 -0.41486132
-3.4172444 4.5979691 1.1135614
-2.8301225 3.8344774 -0.41695309
-3.4206331 4.6345487 1.1196673
-3.2371573 4.387568 -0.28575432
-2.8656814 3.9097273 -0.42409983
-3.4508469 4.7098079 1.134932
-3.2725701 4.4681268 -0.29025525
-2.8672564 3.94065 -0.42636588
-3.4898169 4.7980342 1.1532496
-3.2628267 4.4875989 -0.29077861
-2.7391582 3.7923501 -0.40928334
-3.0367434 4.2074523 -0.27193764
-2.6841085 3.7435975 -0.40300813
-3.4879644 4.8647566 1.1635534
-2.9773984 4.1541877 -0.26785544
-2.4596064 3.4558911 -0.37110916
-3.4117641 4.7937284 1.1437092
-2.914252 4.0962038 -0.26345924
-2.4785681 3.5083914 -0.37581557
-2.9003696 4.10849 -0.2635639
-2.6932764 3.8421154 -0.41050354
-2.897471 4.1349459 -0.26461062
-3.1763248 4.534574 1.2781719
-2.663918 3.8285964 -0.40806317
-3.4617057 4.9770331 1.1784364
-2.8925586 4.1602964 -0.26555267
-3.1619067 4.549387 1.2790717
-2.6715918 3.8669159 -0.41120079
-3.2175868 4.6589341 1.1005863
-2.8753433 4.1649342 -0.26523864
-3.126878 4.5309777 1.2709734
-2.6693461 3.8926494 -0.41294393
-3.1044118 4.5270963 1.067004
-3.1235003 4.5566373 -0.28952253
-3.1272583 4.5638275 1.2772721
-2.627269 3.8586602 -0.4084118
-3.3780086 4.96313 1.1669879
-3.1109471 4.5724659 -0.28983656
-2.5803156 3.8182843 -0.40318248
-2.9273083 4.3350158 -0.27413577
-2.5658624 3.8256125 -0.40300813
-2.8899205 4.3120246 -0.27204233
-2.559118 3.8444967 -0.40405402
-3.3269365 4.9998674 1.1673695
-2.8615763 4.3021307 -0.27078626
-2.5270119 3.8251464 -0.40109071
-2.8905556 4.3787665 -0.27497312
-2.5245671 3.8506064 -0.40283385
-2.9825153 4.5525541 -0.28523099
-2.6393292 4.0564566 -0.42340261
-3.227299 4.9620166 1.1505783
-2.8980188 4.4574461 -0.27863666
-2.5473399 3.9451308 -0.41085216
-3.1695027 4.9105706 1.1360768
-2.8911052 4.4809604 -0.27947402
-2.5324776 3.952322 -0.41067785
-2.8560603 4.4607491 -0.27758995
-2.5026307 3.9359176 -0.40806317
-2.8265486 4.4487758 -0.2762292
-2.4899392 3.9463153 -0.40823749
-2.8141987 4.4636831 -0.27654323
-2.4726093 3.9477956 -0.40754023
-2.796201 4.4679122 -0.2762292
-3.1273315 4.9970093 1.3609538
-2.4724846 3.9784024 -0.40980628
-2.7645075 4.4500151 -0.27455446
-2.5694337 4.1667714 -0.4282833
-2.6811233 4.3512936 -0.26785544
-2.9198563 4.7722449 -0.48946664
-1.7573696 2.8767762 0.90327853
-2.6953659 4.4400783 -0.45443004
-2.7498746 4.5316529 -0.27779928
-2.7858593 4.5945697 -0.093789227
-1.7383056 2.8680236 0.89861977
-2.5675218 4.2612705 -0.4352558
-2.66605 4.4282923 -0.27089092
-1.7534488 2.9136181 0.78507918
-2.78092 4.6209154 -0.09413828
-1.7257971 2.8688068 0.89706683
-2.4412034 4.0838013 -0.4162558
-2.5089471 4.1987953 -0.25634155
-1.7307856 2.8976679 0.77923048
-2.7914276 4.6752343 -0.095045805
-1.7128031 2.8698366 0.89551395
-1.7386651 2.9305749 0.53969896
-2.526257 4.2580857 -0.43316403
-1.7314929 2.9196467 0.65981752
-2.4983501 4.2143989 -0.25676021
-1.7057592 2.8785439 0.77248192
-2.7822235 4.6969943 -0.095290139
-1.700807 2.8724728 0.89447862
-1.7379551 2.9504635 0.42044926
-1.7264217 2.9332211 0.53907323
-2.3850522 4.0522461 -0.41137511
-1.7183037 2.9205973 0.65867269
-2.4461627 4.1593943 -0.25288737
-1.6937261 2.8811202 0.77158207
-1.6819631 2.8634012 0.88981992
-1.7048581 2.9151783 0.29545796
-1.7286478 2.9582257 0.42069301
-1.7131834 2.9341123 0.53813463
-2.2905226 3.9229021 -0.39743021
-1.6982025 2.9096212 0.6548565
-2.4245822 4.1558323 -0.25215468
-1.6846397 2.8886988 0.77203202
-2.7523859 4.7214861 -0.09539485
-1.6758487 2.8759308 0.89189047
-1.7233868 2.9694121 0.17993104
-1.6836746 2.9021542 0.29354054
-1.6874498 2.9110019 0.41313711
-1.7944282 3.0967948 -0.4394609
-1.6969898 2.9298189 0.53625745
-1.7755156 3.065392 -0.30992582
-1.6850852 2.9104338 0.65371162
-2.6491675 4.5774126 -0.27717125
-1.6784487 2.9013093 0.77383161
-1.6696662 2.888454 0.89396101
-1.704161 2.9576483 0.059582517
-1.6930799 2.9407921 0.1778376
-1.6675706 2.8976531 0.29249465
-1.6733193 2.9099915 0.41216215
-1.7737142 3.0858297 -0.43702352
-1.6906894 2.9425755 0.5375089
-1.7548794 3.0542953 -0.30818272
-1.6788261 2.9231086 0.65523815
-1.7421892 3.0346603 -0.18338521
-1.6615218 2.8953187 0.77068228
-1.7323087 3.0198905 -0.060769279
-1.6653397 2.9043193 0.89706683
-1.6908488 2.9583709 0.059477802
-1.6768621 2.9362776 0.17720957
-1.6564584 2.9017255 0.29232034
-1.6631519 2.9158144 0.41216215
-1.7481841 3.0661347 -0.43336743
-1.668671 2.9278646 0.53375447
-1.7382885 3.0500162 -0.30713683
-1.633626 2.8675406 0.64149988
-1.7177494 3.0164247 -0.1819198
-1.6542979 2.9061813 0.77203202
-1.7029661 2.9928968 -0.060106091
-1.6666535 2.9302654 0.90327853
-1.6785387 2.9607761 0.05940799
-1.6685703 2.9455891 0.1774189
-1.645337 2.905757 0.29214606
-1.6568729 2.9285133 0.41313711
-1.7325839 3.0635796 -0.43214872
-1.6584399 2.9336717 0.53375447
-1.7178255 3.0387213 -0.30539373
-1.6574121 2.9330485 0.6548565
-1.6993507 3.008491 -0.18108243
-1.6441427 2.9119387 0.77203202
-1.6866119 2.988374 -0.059896659
-1.6652536 2.9613881 0.05930328
-1.6573006 2.9496543 0.17731424
-1.6351845 2.9114821 0.29214606
-1.6495553 2.939472 0.41386834
-1.7150817 3.0574887 -0.43044254
-1.6510884 2.9446115 0.53469306
-1.6955155 3.0238447 -0.30330199
-1.6471645 2.9388156 0.6548565
-1.6907917 3.0178888 -0.18129177
-1.5806457 2.8224447 0.7468375
-1.6781243 2.9977324 -0.059966467
-1.6441925 2.9479718 0.058919325
-1.6504267 2.9603674 0.17762825
-1.6279211 2.9223938 0.292669
-1.6392839 2.9452126 0.41386834
-1.7024691 3.0599871 -0.42995507
-1.6451567 2.956975 0.53594452
-1.6878542 3.0349689 -0.3038249
-1.6426185 2.9548435 0.65714622
-1.6763672 3.0167887 -0.18087308
-1.6681736 3.0032814 -0.059966467
-1.6363432 2.9569075 0.058989134
-1.6371844 2.9608667 0.17731424
-1.6254171 2.9420099 0.29406345
-1.6333474 2.9575832 0.41484326
-1.6932709 3.0673544 -0.43019882
-1.6481853 2.9869137 0.54032475
-1.6801374 3.0460756 -0.30434784
-1.6634601 3.0170846 -0.18055905
-1.6576805 3.0090854 -0.059966467
-1.5012242 2.7262056 0.833915
-1.6346717 2.9783785 0.05930328
-1.6210777 2.9560559 0.17668621
-1.6204413 2.9561193 0.29493502
-1.6296893 2.9754536 0.41654944
-1.6816008 3.0715046 -0.42995507
-1.6700262 3.0516307 -0.30434784
-1.6567506 3.0298829 -0.18097776
-1.6452498 3.0113437 -0.059896659
-1.6213977 2.9787967 0.059198562
-1.6183823 2.9757333 0.17752358
-1.6110636 2.9635086 0.29510933
-1.67371 3.0825899 -0.4306863
-1.6527119 3.0451834 -0.30312768
-1.649973 3.04267 -0.18139644
-1.6347275 3.0170686 -0.059896659
-1.6195379 3.0002761 0.059512705
-1.6155707 2.9954271 0.17836095
-1.6139467 2.9936664 0.29754972
-1.6657635 3.0936568 -0.43141752
-1.6496269 3.0649691 -0.30452216
-1.6459645 3.0607238 -0.18212914
-1.6345967 3.0421338 -0.060280614
-1.6137729 3.0147262 0.059687231
-1.6145235 3.0186605 0.17940767
-1.6147584 3.0203669 0.29964143
-1.6727185 3.1327236 -0.43604854
-1.6436079 3.0794976 -0.30539373
-1.6399688 3.0752628 -0.1826525
-1.6390138 3.0760574 -0.060839087
-1.6376275 3.0968587 -0.18359455
-2.132206 4.0629773 -0.40143937
-2.1483607 4.1287198 -0.40719163
-2.3576171 4.5347342 -0.26785544
-2.1302822 4.1291108 -0.40649435
-2.1944396 4.2571173 -0.25100327
-2.1829963 4.2677846 -0.41939342
-2.0662584 4.0745826 -0.39969626
-2.2656474 4.4696975 -0.26262185
-1.979328 3.9354558 -0.38540271
-2.2491333 4.4757948 -0.26251718
-2.0642586 4.1402597 -0.40475124
-2.2406216 4.4979196 -0.26335454
-2.0162475 4.079567 -0.39812744
-2.2540879 4.5648112 -0.26680872
-1.9117129 3.9022899 -0.38017333
-2.2434094 4.583415 -0.26743674
-2.1112993 4.3480449 -0.42287967
-2.2387285 4.6145787 -0.26879749
-2.0027938 4.1614971 -0.40405402
-2.1213443 4.411767 -0.25655088
-1.9839654 4.1594715 -0.40318248
-2.0981994 4.4029174 -0.25560883
-1.9685833 4.1645699 -0.40300813
-2.2448704 4.7533526 -0.27549651
-2.1484244 4.5863919 -0.44309977
-2.1842396 4.6670947 -0.27005357
-2.0501919 4.41676 -0.42601725
-2.2385199 4.826889 -0.278846
-1.804978 3.9243014 -0.37790731
-2.1916358 4.7693396 -0.27507779
-1.8185332 3.9904075 -0.3836596
-2.2461481 4.9332852 -0.28407961
-1.7480208 3.8714352 -0.3716321
-2.2108471 4.901042 -0.28177682
-1.7393764 3.8884258 -0.37267792
-2.1489048 4.8084402 -0.27601984
-1.7322514 3.9090462 -0.37407246
-2.1604068 4.8798318 -0.27968338
-1.7490281 3.9843938 -0.38069627
-2.079211 4.7388239 -0.27120495
-1.7342153 3.9865189 -0.38034767
-2.0610659 4.7423897 -0.27099562
-1.8748164 4.3511815 -0.41451269
-2.0950997 4.8647633 -0.27758995
-1.8361238 4.3005719 -0.40910906
-2.0209014 4.7379375 -0.2699489
-1.8273091 4.3216352 -0.41050354
-1.8368394 4.3889551 -0.4162558
-1.930586 4.6585455 -0.44118237
-1.8863292 4.5970559 -0.43473285
-1.7025237 4.2330222 -0.39917332
-1.6833141 4.2278333 -0.39812744
-1.9843982 4.9967222 1.4405869
-1.6656247 4.2262688 -0.39743021
-1.7218212 4.4139605 -0.41451269
-1.8668081 4.7980099 1.3795056
-1.8248025 4.7266269 -0.44327411
-1.8342196 4.7609086 1.3670822
-1.819109 4.7687707 1.3676
-1.8012385 4.7693543 1.366047
-1.8727624 4.9982858 -0.46698046
-1.7793226 4.759016 1.3613882
-1.7598423 4.8063989 -0.44780618
-1.7009885 4.6963677 -0.4369989
-1.6948184 4.72824 -0.43943924
-1.6789678 4.7360053 -0.43961355
-1.6227275 4.6311884 -0.42932916
-1.7130612 4.8944707 1.1971895
-1.5615437 4.5069265 -0.41730168
-1.536254 4.4819236 -0.41451269
-1.6645565 4.8617697 1.1863918
-1.6032751 4.7285132 -0.43682456
-1.646327 4.8638587 1.1854922
-1.5057108 4.4922767 -0.41451269
-1.6262461 4.8603358 1.1832426
-1.4825027 4.4748096 -0.41242099
-1.6080475 4.8622823 1.1823426
-1.516471 4.6314359 -0.42636588
-1.4826057 4.7079511 1.3225653
-1.4661616 4.713098 1.3225653
-1.4587802 4.7477331 1.3308476
-1.5058585 4.953259 1.0063267
-1.4528555 4.7879205 1.3406827
-1.4913828 4.9678869 1.0082349
-1.4527693 4.8484793 1.3562119
-1.4163952 4.7847314 1.3370593
-1.3763825 4.7099123 1.3148009
-1.387252 4.8796821 1.3593177
-1.368947 4.9329128 1.1818929
-1.3182262 4.7565956 1.3225653
-1.3487996 4.9303789 1.1800933
-1.323012 4.8394337 1.3443062
-1.2983115 4.8794122 1.1656964
-1.2585249 4.7972064 1.1450008
-1.2771616 4.8717093 1.3494825
-1.2416321 4.7975807 1.1441011
-1.2263112 4.7452102 1.3132479
-1.1878062 4.6633458 1.2894366
-1.2370877 4.9214187 1.171545
-1.0939221 4.3582983 1.2040263
-1.1927308 4.8159943 1.1454507
-1.0759184 4.3508382 1.2009205
-1.1621494 4.7673211 1.1328535
-1.1177496 4.6557603 1.1054094
-1.0566614 4.469986 1.0604193
-1.0622514 4.5647531 1.0820146
-1.0927228 4.9127169 -0.44031078
-1.065522 4.9533391 -0.44327411
-1.0379187 4.9082966 -0.43891633
-1.0484595 4.9710007 1.1728948
-1.0386376 4.9847035 0.62518978
-0.96990359 4.6670651 0.92656857
-1.0311786 4.9706335 1.1719949
-1.0112767 4.9396806 0.61909634
-0.98928046 4.8451462 -0.43264109
-0.96695894 4.7358236 0.93954355
-0.97723943 4.7947116 1.1297042
-0.98580819 4.9023118 0.61397779
-0.95551455 4.7645702 -0.42514572
-0.94573891 4.7200861 0.93572736
-0.91417861 4.5708652 1.0761659
-0.96668208 4.9000487 0.61324656
-0.98231256 4.9930444 0.98915386
-0.92638177 4.7174435 1.1099085
-0.87287098 4.4531803 1.215932
-0.95259213 4.9282117 0.79500008
-0.92706233 4.8006296 -0.42776039
-0.93558657 4.8538713 -0.25906301
-0.87076038 4.5217953 1.0631187
-0.85367447 4.4372287 1.2107556
-0.93145543 4.9061141 0.79093277
-0.91049045 4.7956882 -0.42706311
-0.91698736 4.8391252 -0.25812095
-0.83716077 4.4305444 1.2081673
-0.90943193 4.8830614 -0.43455851
-0.90081882 4.8462238 -0.25833032
-0.82837796 4.4695301 1.2180026
-0.88389784 4.849339 -0.25833032
-0.89394587 4.9190631 1.3396474
-0.87847733 4.9069428 -0.43612733
-0.8253867 4.6150231 0.91130376
-0.88136876 4.9330058 -0.26262185
-0.87914217 4.9354668 1.3432709
-0.87304944 4.9767013 -0.44205391
-0.81333768 4.6410818 0.91588324
-0.84623301 4.8337507 -0.2571789
-0.83507019 4.8496733 0.60422826
-0.85904741 4.9993548 -0.44379702
-0.7981298 4.6496973 0.91702807
-0.8296935 4.8386436 -0.2572836
-0.82539588 4.8956232 0.60959053
-0.83833879 4.982985 0.80031884
-0.78026623 4.6427741 0.91511995
-0.7873351 4.6898437 -0.24922384
-0.82187706 4.9807358 0.61982757
-0.78242695 4.7519855 0.76277459
-0.76787966 4.6687164 0.91969937
-0.7654562 4.659059 -0.24744442
-0.80258894 4.9718161 0.61836511
-0.76760656 4.7604046 0.76371318
-0.75563711 4.6913838 -0.41573292
-0.73442686 4.5647602 0.89871037
-0.75489163 4.6971984 -0.24932852
-0.757752 4.8059831 0.77059627
-0.74080724 4.7038331 -0.41660443
-0.71989518 4.5710497 0.89947367
-0.74986464 4.7667575 -0.25288737
-0.74777436 4.7588949 1.1121581
-0.71900386 4.5862207 1.2438843
-0.75266659 4.8731871 0.60544699
-0.7227782 4.6905107 -0.41520998
-0.70662153 4.5909986 0.90290827
-0.72806281 4.7357869 -0.25110796
-0.72997838 4.7537708 1.1103585
-0.70357442 4.5925221 1.2449197
-0.73239696 4.8541927 0.6027658
-0.71859729 4.7740417 0.76465172
-0.70610303 4.6910353 -0.41503564
-0.69351357 4.6128511 0.90672439
-0.71241587 4.744225 -0.25142196
-0.71684742 4.7794161 1.1157572
-0.71012473 4.7458858 1.2858131
-0.71515763 4.8547559 0.60252208
-0.73317677 4.9891539 -0.44118237
-0.69337207 4.7240205 0.92809504
-0.69440132 4.7368021 -0.2508986
-0.69818455 4.7683916 1.1126078
-0.68264294 4.6679306 1.2640723
-0.70131564 4.8728194 0.60447198
-0.6623072 4.6189337 -0.40823749
-0.69079858 4.8176327 0.94603103
-0.70558912 4.9269018 -0.26084244
-0.68236911 4.7706804 1.1126078
-0.64669698 4.5325871 1.2268023
-0.69368476 4.9420757 0.61275911
-0.64645481 4.6231914 -0.4084118
-0.67479205 4.8258481 0.94717592
-0.66656482 4.7730675 -0.25257334
-0.66624933 4.7768941 1.1135077
-0.62368524 4.4831538 1.2128261
-0.67400885 4.9267659 0.61056548
-0.63300627 4.6451607 -0.41015494
-0.64386368 4.7310228 0.92809504
-0.65041226 4.7853742 -0.25309673
-0.64218253 4.7310281 1.1022601
-0.60829055 4.4872179 1.2133437
-0.6165244 4.6453667 -0.4099806
-0.62837815 4.7410264 0.92962146
-0.63448906 4.7935548 -0.25341073
-0.61519492 4.6540313 1.0838141
-0.62740308 4.8506255 0.77466357
-0.59979588 4.6435385 -0.409632
-0.60938442 4.717772 0.92466044
-0.61986589 4.8055377 -0.25393409
-0.60100174 4.66571 1.0860636
-0.61145473 4.8606257 0.77591503
-0.57787031 4.6001363 -0.40562281
-0.61725849 4.92063 -0.25990039
-0.60363346 4.8256526 -0.08488851
-0.58110267 4.7055326 0.082759313
-0.60215366 4.9254751 0.78592682
-0.56132519 4.5981703 -0.40527418
-0.57584673 4.7239604 0.92504203
-0.60163134 4.9426861 -0.26094711
-0.56147498 4.6877756 0.082410261
-0.54949367 4.6357155 -0.4084118
-0.55912155 4.7239923 0.92466044
-0.59023809 4.9943419 -0.2635639
-0.55007011 4.7396388 0.25006124
-0.53125882 4.619791 -0.40684301
-0.51306337 4.5957861 -0.40457696
-0.49937442 4.619338 -0.40649435
-0.53922105 4.996089 -0.26335454
-0.48925513 4.6785192 -0.41154939
-0.51904368 4.9801536 -0.26241252
-0.46050763 4.5653062 -0.40143937
-0.44611201 4.5827498 -0.40283385
-0.47375235 4.8843441 -0.2571789
-0.47175121 4.9628701 0.087017693
-0.43011343 4.5842791 -0.40283385
-0.45892912 4.909831 -0.25843498
-0.45369661 4.9565206 0.086878076
-0.40855476 4.5242391 -0.39743021
-0.42550582 4.7303829 -0.24890982
-0.43305978 4.9202261 0.086214885
-0.4280262 4.8825488 0.25686491
-0.39430889 4.5435014 -0.39899898
-0.4165574 4.8193932 -0.25351539
-0.42093459 4.9814854 0.087262027
-0.382581 4.5944881 -0.40335676
-0.39346141 4.7451811 -0.24953786
-0.40828264 4.9343834 -0.086424313
-0.39789137 4.9131503 0.25833032
-0.37226292 4.6572995 -0.4087604
-0.37851682 4.7564144 -0.25006124
-0.38954177 4.9058094 -0.085900746
-0.37966004 4.9005704 0.25759763
-0.35919046 4.7002888 -0.41242099
-0.35120091 4.6062913 -0.24210617
-0.36269987 4.9038572 0.25770226
-0.34481278 4.7293339 -0.41486132
-0.33691612 4.643404 -0.24399024
-0.35589772 4.928844 1.3241183
-0.32968038 4.7503843 -0.41660443
-0.32923669 4.7680874 -0.25047991
-0.32701036 4.7600541 -0.083282888
-0.33769923 4.9281883 1.3236006
-0.31466946 4.7753634 -0.41869619
-0.31494099 4.8050814 -0.25236401
-0.30610299 4.6953163 -0.082131028
-0.32086927 4.9351206 1.3251536
-0.28186908 4.5179248 -0.39603567
-0.29816949 4.8061514 -0.25236401
-0.29262879 4.7302356 -0.082724407
-0.3035515 4.9207315 1.3210124
-0.27376664 4.5410624 0.079408452
-0.26843804 4.55866 -0.39952192
-0.28597465 4.8709164 -0.25571349
-0.28794515 4.9487619 1.3282595
-0.25462022 4.5973663 -0.40283385
-0.26797804 4.8539367 -0.25477144
-0.2432151 4.6877646 -0.41067785
-0.24710311 4.7950478 -0.25163129
-0.22641048 4.5801139 0.24032672
-0.22454035 4.6408234 -0.40649435
-0.22978754 4.7839117 -0.25100327
-0.23876406 4.9889112 1.1530992
-0.2357346 4.9256115 -0.086075269
-0.21237034 4.5883884 0.080176361
-0.2104203 4.5808764 0.24032672
-0.20074448 4.4723969 -0.39167792
-0.21329875 4.7706804 -0.25027055
-0.21348688 4.8125339 -0.084085695
-0.19027708 4.5398908 0.55791789
-0.18450457 4.4391961 -0.38871458
-0.19812605 4.8073163 -0.25215468
-0.20011456 4.8971667 -0.085551701
-0.17404871 4.5306096 0.55669922
-0.16559821 4.3502207 -0.38087061
-0.18322484 4.8578744 -0.25477144
-0.18518555 4.9557858 -0.08656393
-0.16475707 4.6712413 0.40893474
-0.15878586 4.54706 0.55864912
-0.14972465 4.3308601 -0.3791275
-0.16284981 4.7586799 -0.24953786
-0.169432 4.9763584 -0.086912982
-0.13433826 4.2277093 0.37006328
-0.14866059 4.7043056 0.57790446
-0.14487983 4.635921 0.73461634
-0.13918471 4.4787216 -0.39202651
-0.14448076 4.6753488 -0.24514163
-0.15095969 4.9409418 -0.086284697
-0.11975202 4.2082152 0.36832017
-0.13352238 4.7504354 0.58351046
-0.131382 4.7035131 0.74525392
-0.1259892 4.5389071 -0.39725587
-0.13001917 4.7437062 -0.2487005
-0.13479048 4.9494109 -0.086424313
-0.10550827 4.2265344 0.36988899
-0.11776958 4.7508521 0.58351046
-0.11607168 4.7493634 0.75244987
-0.1115011 4.5950899 -0.40213659
-0.11471934 4.7620816 -0.24964255
-0.10858914 4.8980503 0.085516788
-0.10665981 4.8881269 0.25623688
-0.091710433 4.2368202 0.37076053
-0.10114177 4.7492495 0.58326674
-0.1000314 4.7754135 0.75651717
-0.097321354 4.6850891 -0.4099806
-0.099410757 4.8263512 -0.25299203
-0.10080293 4.9782214 -0.086912982
-0.073714636 3.9467103 0.068902098
-0.087950431 4.7986078 0.25152662
-0.088498272 4.9223995 0.4307237
-0.081380829 4.7093053 -0.41207233
-0.081755511 4.828681 -0.25309673
-0.069394581 4.7329955 0.24807246
-0.067189209 4.6377964 0.40579712
-0.067631409 4.7835941 0.58741027
-0.064446069 4.6737018 -0.40893474
-0.0653034 4.8588929 -0.25466678
-0.062475629 4.8369536 1.2961658
-0.049861651 4.5344043 0.39673293
-0.050363507 4.730207 0.58082932
-0.0481712 4.6778827 -0.40928334
-0.048224103 4.8471079 -0.25403875
-0.040177502 4.1851702 -0.073055774
-0.045100536 4.7849841 1.2821896
-0.036979198 4.8152494 0.25236401
-0.034361076 4.5783825 0.40056777
-0.034631714 4.8395314 0.594235
-0.031693853 4.6561065 -0.40736595
-0.032591134 4.9139175 0.95518982
-0.03157381 4.8891883 -0.25623688
-0.025689328 4.2052813 -0.073404826
-0.028763123 4.8469305 1.298754
-0.022614107 4.9831896 0.086982794
-0.020221826 4.8273325 0.25299203
-0.01829231 4.5565581 0.39865038
-0.018159062 4.9547572 0.60837179
-0.015388936 4.6402497 -0.40597141
-0.015208662 4.8413615 0.94107002
-0.013676952 4.8971648 1.1306039
-0.011061228 4.2253423 -0.073753871
-0.0052013118 4.9672408 0.086703561
-0.0040350622 4.6216564 0.24221084
-0.0023741547 4.534678 0.39673293
0.00080490031 4.6243362 -0.40457696
0.0016906034 4.843348 0.94145161
0.0025484271 4.8673201 -0.25508547
0.0033656755 4.8211827 1.1130579
0.0029511238 4.2273555 -0.073788777
0.0042262501 4.8431506 1.2977188
0.011129044 4.9052405 0.085621506
0.012365436 4.7235012 0.24754909
0.01323517 4.4609404 0.39028341
0.017181739 4.6880612 -0.41015494
0.015815219 4.3152041 0.83879644
0.018652027 4.8572984 -0.25456211
0.019391419 4.8308878 1.1153073
0.017270897 4.1233358 -0.071973726
0.020973099 4.8064013 1.2878836
0.023367353 4.0573149 0.070821866
0.026072951 4.2680631 0.22368389
0.02672537 4.2536674 0.37215498
0.03311858 4.7437634 -0.41503564
0.03113202 4.3504601 0.84566551
0.035925787 4.9011426 -0.25686491
0.031803228 4.1412473 -0.072287865
0.037701625 4.8005037 1.2863307
0.040416539 4.3691478 0.076267019
0.037404254 3.8964729 0.20421492
0.041593887 4.2555408 0.37232932
0.051840063 4.9500227 0.78404963
0.049407229 4.7177196 -0.41276959
0.046045143 4.3248043 0.84070444
0.054437649 4.7984109 1.2858131
0.055488214 4.3549838 0.076022685
0.050640278 3.8683593 0.20274951
0.056473769 4.2573614 0.37250364
0.069225483 4.9577131 0.78530115
0.066316679 4.7493935 -0.41555858
0.065277763 4.6171126 0.89756554
0.060739726 4.243741 -0.22242783
0.071388781 4.8117132 1.2894366
0.070690766 4.3547635 0.076022685
0.063842393 3.8501863 0.20180747
0.071302153 4.2551465 0.37232932
0.072518781 4.2395372 0.52062589
0.087255992 4.9989171 0.79187137
0.081748545 4.6833944 -0.40980628
0.083951689 4.762115 0.92580527
0.074840814 4.2035642 -0.2203344
0.08853735 4.83075 1.2946129
0.086089633 4.3644862 0.076197207
0.077122353 3.8419528 0.20138879
0.090471953 4.4680138 0.39098063
0.090915591 4.413909 0.54207492
0.093575731 4.4673223 0.70770961
0.09813688 4.6850724 -0.4099806
0.10049243 4.7578678 0.92504203
0.089769796 4.2152581 -0.22096242
0.087672144 4.0504341 -0.070717148
0.10556914 4.8381371 1.2966834
0.10252776 4.4161372 0.077104732
0.09114553 3.8676169 0.20274951
0.10786151 4.5433602 0.3976045
0.10646705 4.4195185 0.54280609
0.11955404 4.8918481 -0.42810899
0.10512049 4.2707481 0.83040082
0.10477731 4.2268991 -0.22159046
0.10191186 4.0541019 -0.07078696
0.11837064 4.4317446 0.077383965
0.10432052 3.8552961 0.20212148
0.12529431 4.6007142 0.40265954
0.12118092 4.3933234 0.53963745
0.13051093 4.6723237 -0.40893474
0.12002665 4.2703552 0.83040082
0.11583292 4.0457258 -0.070647344
0.13275202 4.3953261 0.076755688
0.1272324 4.1643395 0.21834564
0.12458562 4.0545912 0.35489815
0.13109078 4.2182698 0.51818854
0.13624214 4.3352914 -0.3794761
0.15180005 4.8036489 0.93420094
0.13580845 4.2739744 -0.22410259
0.13014814 4.0512929 -0.070752062
0.15429081 4.5787039 0.079966925
0.14469141 4.2716846 0.22399792
0.13969313 4.0820093 0.35733855
0.14341308 4.1483498 0.50965762
0.1577009 4.5159869 -0.39533845
0.16911685 4.8187861 0.93725383
0.15558326 4.4111996 -0.23132494
0.14407703 4.0648284 -0.070996389
0.15371628 4.152523 0.072532199
0.16019721 4.2871203 0.22483528
0.15334147 4.0655684 0.35594404
0.18569569 4.8558779 0.76965761
0.14179888 3.6911674 -0.32317349
0.18516999 4.8201609 0.93763542
0.17136699 4.4405961 -0.23289503
0.18464154 4.741684 -0.082829125
0.16707818 4.1239886 0.072043538
0.17425174 4.2825742 0.22462595
0.16608647 4.047121 0.35437521
0.20072997 4.8295774 0.76559031
0.15387331 3.6866956 -0.32282487
0.20257112 4.8332157 0.94030684
0.18619369 4.4240069 -0.23205765
0.2045583 4.8402476 1.1184566
0.17275535 4.087728 -0.071415246
0.18224083 4.1573739 0.072636917
0.18972979 4.2939124 0.22525398
0.18056628 4.0544786 0.3550725
0.17768592 3.9741552 0.4884524
0.21233985 4.7124181 0.74713105
0.16683236 3.6881261 -0.32299918
0.22126038 4.8913546 0.95175534
0.22496454 4.9540892 -0.25990039
0.21989715 4.8239694 1.1148574
0.18291081 3.9972081 -0.069844536
0.19940011 4.2126417 0.073614255
0.20604599 4.3211532 0.22671939
0.19582117 4.0916691 0.3583844
0.19461323 4.0369596 0.496252
0.22802275 4.6958637 0.74462813
0.18018943 3.6974716 -0.32387072
0.23412728 4.8042717 0.93496412
0.21269278 4.3488269 -0.22818479
0.23750016 4.8387432 1.1184566
0.20266624 4.1143842 -0.071903922
0.21978997 4.3237581 0.075568922
0.22694874 4.434103 0.23268569
0.22076175 4.2839303 0.37529263
0.21967302 4.2483778 0.52233207
0.18832597 3.629822 -0.44628558
0.23855844 4.5825953 0.72679466
0.19330201 3.7007999 -0.32421938
0.23591208 4.5014544 0.87619489
0.21877132 4.1605349 -0.21834564
0.22524348 4.2694111 -0.07462649
0.23813817 4.3688483 0.076371737
0.2384938 4.3474879 0.22818479
0.23067906 4.1916218 0.36727428
0.23238763 4.1960106 0.51599485
0.20107728 3.6191971 -0.44506687
0.25700292 4.6112747 0.73148763
0.20675276 3.6980772 -0.32404503
0.2692647 4.816195 0.93763542
0.23485981 4.1876636 -0.21981104
0.2283828 4.0469437 -0.070752062
0.25014538 4.3120928 0.075394399
0.24552372 4.2070584 0.22085775
0.24901785 4.2288613 0.52013838
0.21452963 3.6323445 -0.44677305
0.2783531 4.6990862 0.74556679
0.22096097 3.7192106 -0.32596248
0.28656834 4.8092966 0.93649065
0.26116726 4.3701954 -0.22944085
0.24561961 4.098021 -0.071659587
0.26211438 4.2733164 0.074731201
0.25873682 4.1942601 0.22022973
0.27142289 4.3627381 0.53671265
0.22842714 3.6613319 -0.45042911
0.2552512 4.0684295 -0.35664126
0.26185402 4.1620479 -0.21855497
0.25958768 4.1031704 -0.07176429
0.27690122 4.2703805 0.074696302
0.27207375 4.1734014 0.21918301
0.28433263 4.3380861 0.38034767
0.28547755 4.3439374 0.53451896
0.24420741 3.7060707 -0.45603511
0.28170002 4.2524009 -0.37285227
0.27644244 4.1510963 -0.21803163
0.27377665 4.100244 -0.071729392
0.29104638 4.2473917 0.074312352
0.29129526 4.2401733 0.22274184
0.29755133 4.3092403 0.37790731
0.29645035 4.2715697 0.52574438
0.25861511 3.7170324 -0.45749757
0.26118729 3.7445638 -0.32840282
0.29442164 4.1999149 -0.22064841
0.29074827 4.1371646 -0.072392583
0.30699402 4.2723327 0.074766114
0.30379409 4.2072573 0.22106709
0.30740204 4.2366371 0.3716321
0.27325037 3.7478318 -0.46139738
0.32843015 4.4938488 0.7136541
0.29973271 4.0913653 -0.35890734
0.32016537 4.3702717 0.85177141
0.33189893 4.5196109 -0.23750059
0.31239936 4.2338443 -0.074102923
0.30943105 4.1057291 0.071869008
0.3110885 4.1085854 0.21593818
0.31511623 4.152154 0.36431101
0.32928991 4.3189363 0.53183788
0.28617904 3.7448759 -0.46115363
0.32285702 4.205514 -0.36901742
0.33421543 4.3534679 0.84871852
0.33709967 4.3810201 -0.23027822
0.32470968 4.2008276 -0.073544443
0.31479716 3.9909945 0.069879435
0.32606032 4.115438 0.21635687
0.3104187 3.9007208 0.34234774
0.34704792 4.3514009 0.53598142
0.29972485 3.7497904 -0.46188486
0.340406 4.240109 -0.37215498
0.3489109 4.3365579 0.84566551
0.35010579 4.3419299 -0.22828946
0.33389613 4.1318998 -0.072357684
0.32843652 3.9778562 0.069670007
0.32905912 3.9769335 0.2091345
0.3199074 3.8499751 0.33798996
0.36464405 4.3698816 0.53841883
0.31363684 3.7586126 -0.46310353
0.396869 4.746069 0.75432706
0.35953149 4.2905159 -0.37668711
0.36141679 4.3040118 0.83955961
0.38569283 4.5834889 -0.24105945
0.34831819 4.1307092 -0.072357684
0.34453651 4.0106153 0.070263386
0.33779091 3.9240832 0.20641303
0.33078641 3.8270581 0.33607253
0.32507035 3.7456856 -0.4616411
0.39429525 4.5341563 0.72085011
0.3772136 4.3289981 -0.38017333
0.39874223 4.5668244 0.89107805
0.37756345 4.3155704 -0.22703341
0.36253533 4.1355081 -0.072462395
0.35801131 4.0114431 0.070298299
0.35023981 3.9089551 0.20568034
0.33617064 3.7445793 0.32892576
0.40502235 4.4938993 0.55401808
0.43023339 4.7550616 0.75620425
0.39250338 4.3296394 -0.38034767
0.40313864 4.4383163 0.86627293
0.38809898 4.2645001 -0.2244166
0.37733302 4.1381998 -0.072532199
0.37585863 4.0439525 0.070891678
0.39072314 4.1880412 0.22043908
0.40273961 4.3086886 0.37860456
0.43205932 4.605041 0.56791121
0.46377346 4.9245539 0.7834239
0.40893018 4.3341222 -0.38087061
0.40749377 4.3028159 -0.22651003
0.42536226 4.4831805 -0.078605637
0.37586552 3.8892853 0.068204008
0.39706472 4.1011691 0.21593818
0.41082036 4.2278619 0.3716321
0.44662601 4.5797176 0.56498629
0.45137969 4.6201386 0.73524207
0.42425179 4.334651 -0.38104489
0.45121104 4.5935583 -0.24189681
