# .PCD v0.7 - Point Cloud Data file format
VERSION 0.7
FIELDS x y z intensity distance sid
SIZE 4 4 4 4 4 4
TYPE F F F F F F
COUNT 1 1 1 1 1 1
WIDTH 629
HEIGHT 1
VIEWPOINT 0 0 0 1 0 0 0
POINTS 629
DATA ascii
-0.32072619 -0.2896131 -1.9034851 12.153846 1.797359 278.51282
-0.24326089 -0.28859892 -1.9066986 11.835294 1.7925653 303.21765
-0.14817256 -0.28662229 -1.9107801 11.687023 1.7910606 333.64505
-0.049944926 -0.28650585 -1.9108433 11.546558 1.7909746 365.07288
0.044383161 -0.28810349 -1.9086107 10.961326 1.7939558 395.22101
0.12510625 -0.29164949 -1.9027426 10.9 1.7967497 421.02499
-0.21153 -0.037492 -1.9119999 0 1.774 313
-0.70473832 -0.34553334 -1.8017498 13.333333 1.7983335 152.5
-0.63739151 -0.33815712 -1.8144 12.138614 1.7874289 174.0396
-0.54604942 -0.33077887 -1.828555 12.025641 1.7742136 203.39886
-0.44845936 -0.32479975 -1.8401867 12.024 1.7622768 234.96899
-0.34963733 -0.32455227 -1.8416864 12.379085 1.7466887 266.84967
-0.24958375 -0.32466221 -1.8423362 12.223035 1.7357019 299.58411
-0.14945474 -0.32498395 -1.8426338 11.975178 1.7301329 332.64185
-0.049296938 -0.32526323 -1.8425803 11.764918 1.7299789 365.81827
0.049798369 -0.32571527 -1.8428233 11.515845 1.7358679 398.52905
0.14995028 -0.32581517 -1.8434962 11.318624 1.7478647 431.24536
0.247612 -0.32804787 -1.8407195 11.18877 1.7620053 462.81509
0.34570599 -0.33465028 -1.8289567 11.185082 1.7736706 494.56491
0.43885338 -0.3425658 -1.8149949 10.833333 1.7874055 524.47223
0.50296497 -0.35005003 -1.8028251 10.5 1.7975 545
-0.41853189 -0.29767296 -1.8862736 12.052631 1.796605 246.92105
-0.34856772 -0.29624692 -1.8921168 12.333333 1.791078 269.27975
-0.252671 -0.29651943 -1.893191 12.176101 1.7812449 299.88678
-0.14928786 -0.29644686 -1.8925219 11.701863 1.7745596 333.13666
-0.049142085 -0.29641309 -1.8937831 11.745455 1.7756602 365.4606
0.049772114 -0.29631668 -1.893602 11.35443 1.7808734 397.28482
0.14965358 -0.29672644 -1.8933932 10.961832 1.7917174 429.13739
0.22267468 -0.29885668 -1.887253 10.666667 1.7974001 452.46667
-0.71606719 -0.04309386 -1.8175715 0 1.7867143 147.28572
-0.69177663 -0.043895327 -1.8179221 0 1.7787776 154.66667
0.36477581 -0.018341582 -1.8615583 0 1.7805834 500.33334
-0.53323996 0.44117999 -1.80645 142 1.772 207.5
-0.43417001 0.45063666 -1.8381333 0 1.7826667 241
-0.34132001 0.45265999 -1.8395667 16.666666 1.7693334 270.66666
-0.25031 0.44578999 -1.8049999 16 1.724 299
-0.139395 0.46964496 -1.814775 0.5 1.733 336
-0.049817499 0.45789 -1.84395 37 1.7590001 365.5
0.11768 0.45815 -1.8346 20 1.762 420
-0.1343625 0.52231669 -1.8248833 5.5 1.7564999 337.83334
-0.83125597 -0.40167725 -1.7016773 12.181818 1.7663636 104.40909
-0.74205041 -0.4012841 -1.7029066 12.652174 1.7322392 131.41304
-0.64589638 -0.40146616 -1.7020974 13.833333 1.6980834 161.44444
-0.54722798 -0.40148038 -1.7023385 13.266666 1.6690831 193.55
-0.44621339 -0.40141043 -1.7033479 13.661972 1.6456621 227.52113
-0.34869081 -0.40164098 -1.7039788 13.270588 1.6284349 261.11765
-0.24728699 -0.4021737 -1.7040224 14.054545 1.6160185 296.66364
-0.15074003 -0.40227449 -1.7037489 13.593496 1.6096982 330.88617
-0.048167169 -0.40252998 -1.704249 13.489051 1.6100575 367.39417
0.05251931 -0.40313712 -1.7052083 12.96 1.6173472 403.05334
0.15066572 -0.40333566 -1.7061135 12.160919 1.630236 437.38507
0.24998896 -0.40388745 -1.706954 11.737556 1.6491807 471.457
0.34979296 -0.40420938 -1.7075973 12.401869 1.6737056 504.82242
0.44831184 -0.40449047 -1.707725 11.744076 1.7028204 536.76776
0.52163053 -0.40414277 -1.7074772 11.216495 1.7272269 559.8866
-0.90589666 -0.38361001 -1.7029333 16.666666 1.796 82.333336
-0.83771211 -0.3885735 -1.7214037 11.876993 1.7839327 104.68109
-0.7457149 -0.3774249 -1.7432067 12.370514 1.7653979 134.39864
-0.64978337 -0.37405354 -1.7503419 12.679305 1.7383933 164.59399
-0.54995215 -0.37404895 -1.7508658 12.552469 1.7097629 196.3858
-0.44990355 -0.37402225 -1.7515519 12.634659 1.6866685 229.23631
-0.34980989 -0.37444481 -1.7517543 13.06015 1.6688796 262.88272
-0.25020763 -0.37462941 -1.7524829 13.037092 1.6574641 296.97922
-0.15054093 -0.37496886 -1.7526344 12.816049 1.6514521 331.43527
-0.05069039 -0.37518623 -1.7529662 13.311524 1.6516169 366.08475
0.049889252 -0.37572709 -1.753305 11.921296 1.6579149 400.84644
0.14957099 -0.37590072 -1.7548667 12 1.6712482 434.86032
0.25006944 -0.37586859 -1.7558117 11.379884 1.6898906 468.53616
0.34998229 -0.37607381 -1.7563148 11.475662 1.7137173 501.21008
0.44989136 -0.3760702 -1.7567337 11.37303 1.7428367 532.89929
0.53504157 -0.37662101 -1.75428 10.986263 1.7691563 559.34753
0.65498996 -0.37071472 -1.7199411 7.5294118 1.7838235 599.35297
0.59394997 -0.23908001 -1.7071 9 1.726 586
0.64599121 -0.26805124 -1.7355 11.75 1.7775 597.25
-0.97724003 -0.10677 -1.7007999 26 1.793 56
0.62501001 -0.18739501 -1.7348499 17 1.758 592.5
-0.71493995 -0.044515997 -1.76805 0 1.74 142
-0.20475 -0.054028999 -1.7627 2 1.625 312
-0.19978 -0.053025998 -1.7299 4 1.592 313
0.6634233 -0.027151002 -1.7290999 3.3333333 1.7600001 606
0.77866501 0.150365 -1.7023001 11 1.7950001 642
-0.89205998 0.32189 -1.7135999 3 1.788 86
-0.80575001 0.41797 -1.7462 32 1.799 118
-0.7431587 0.41611248 -1.7225751 16.5 1.7537501 133.75
-0.65102851 0.41916004 -1.7277539 36.923077 1.7273077 162.88461
-0.54641527 0.41969705 -1.7243646 33.294117 1.693647 196.11765
-0.44088662 0.41811317 -1.7110485 4.4571428 1.6556569 230.11429
-0.34495673 0.42068532 -1.7165658 9.1923075 1.6443843 263.26923
-0.268612 0.41891316 -1.7074903 29.058823 1.6252352 289.41177
-0.12115965 0.43727654 -1.7152363 16.379311 1.6284654 341.53448
-0.048207581 0.42191878 -1.7139724 20.647398 1.6240693 367.22543
0.050515637 0.42255312 -1.7137923 21.970732 1.6299857 401.93658
0.15024415 0.42386833 -1.7166232 18.834711 1.6450461 436.45456
0.25133657 0.4255957 -1.7179816 14.83737 1.6649437 470.76816
0.3514238 0.4264999 -1.719267 13.485714 1.6901237 503.86349
0.41036642 0.42731518 -1.7200876 10.461538 1.7074463 522.89233
-0.13263232 0.50735223 -1.7693231 6.1538463 1.6989231 338
-1.0193001 -0.44770721 -1.6138541 12.4 1.7888972 39.657143
-0.97359431 -0.44309559 -1.6148648 10.575758 1.7656363 52.386364
-0.82935119 -0.42186174 -1.6614017 12.505139 1.7344598 100.26872
-0.74976742 -0.42970622 -1.649479 12.562807 1.6937047 123.31298
-0.64948529 -0.42981488 -1.6488656 13.764238 1.6571171 155.25166
-0.54967058 -0.4303326 -1.6489257 13.867353 1.6267444 188.43851
-0.44983497 -0.43072882 -1.6488608 13.842432 1.6018749 222.76427
-0.35001257 -0.43134102 -1.6491297 14.330728 1.5833038 258.05832
-0.25011066 -0.43235832 -1.6485656 14.692307 1.5701525 294.05325
-0.15052596 -0.43274325 -1.6490768 14.900718 1.5641694 330.40491
-0.050682787 -0.43344051 -1.6489413 14.337783 1.5639976 366.99072
0.050036244 -0.43433508 -1.6491649 13.396471 1.5706533 403.73941
0.14999327 -0.43521476 -1.6492085 12.874101 1.5834048 439.7626
0.24966121 -0.43636706 -1.6488028 12.839951 1.601871 475.00684
0.34937403 -0.43693036 -1.6494737 12.42132 1.6271312 509.24872
0.44822365 -0.4368566 -1.6502832 11.923797 1.6576741 542.04547
0.54809475 -0.43609917 -1.6492288 11.216981 1.6923826 574.2146
0.64626765 -0.43840316 -1.63288 13.694309 1.7180829 606.34308
0.74479896 -0.44349113 -1.638448 10.915547 1.7688606 634.22168
0.81906444 -0.45617712 -1.6158891 10.548572 1.7893429 657.9657
-1.0082154 -0.35651386 -1.6282692 5.0769229 1.7763076 41.384617
-0.98535526 -0.35149053 -1.6151367 3.2631578 1.7527367 45.473682
-0.87818241 -0.38206208 -1.6739455 11.833333 1.7582083 86.166664
-0.52974999 -0.39897001 -1.6995 10 1.661 199
0.54518151 -0.3775169 -1.6580154 11.846154 1.6858462 574
0.65419745 -0.3766723 -1.6308583 16.620111 1.7062508 611.25
0.74923128 -0.34560162 -1.6567628 12.855346 1.766471 636.21069
0.80219996 -0.32608002 -1.6680501 19 1.7985001 650
-1.0088334 -0.24246334 -1.6177334 12 1.7503333 36
-0.92418003 -0.24977 -1.65635 11 1.7420001 66.5
-0.89923 -0.29209 -1.6377 10 1.72 72
0.57168144 -0.25285 -1.668357 9.1428576 1.684 584
0.64820337 -0.25530669 -1.6476001 2 1.6976666 610.33331
-1.045 -0.12667 -1.6081001 12 1.75 22
0.56511998 -0.17712 -1.6092 15 1.6185 591.5
0.67481244 -0.14003 -1.62485 3 1.6772499 624
0.71187001 -0.1211 -1.6851 2 1.7460001 626
0.88879341 -0.13143978 -1.629473 21.486382 1.7889037 684.42804
0.91029137 -0.1367383 -1.6164846 21.018867 1.7904723 692.37109
-1.0935 -0.048516002 -1.6355 0 1.796 13
-0.19226666 -0.043938 -1.6277333 0.66666669 1.4893333 313.33334
0.59309 -0.089560002 -1.61965 5 1.633 600
0.71441001 -0.076330498 -1.6664 3 1.7285 630
0.7827509 0.096698649 -1.6054119 1.28 1.7099599 659.64001
0.85754985 0.091807082 -1.6131686 0.7230047 1.7560098 679.26294
0.91403103 0.088924147 -1.6148255 0.75 1.7884381 694.26251
0.76902175 0.12670325 -1.6415954 2.0930233 1.7360021 649.28607
0.83759135 0.11929894 -1.6471391 1.1476997 1.7755258 667.65131
0.90848333 0.10266665 -1.6286917 0.5 1.7974167 690.16669
-0.95436001 0.22516 -1.642 0 1.7410001 55
0.79311001 0.284805 -1.66275 1 1.783 649.5
0.82933044 0.28238353 -1.6557206 1.3684211 1.7951931 660.6842
-0.82913834 0.34407166 -1.6636 9 1.7203335 98.166664
-0.73752254 0.37771636 -1.6362882 13.177112 1.6655127 123.81744
-0.64924115 0.37790397 -1.6365694 16.126482 1.6339897 152.47629
-0.54980183 0.37717217 -1.6360105 19.332123 1.6024454 185.86751
-0.44983411 0.37726003 -1.6368046 19.894552 1.5778874 220.79613
-0.35003203 0.37723079 -1.6372671 21.246622 1.5590541 256.60641
-0.26639819 0.37709063 -1.6373106 22.136021 1.5475422 287.1713
-0.11702977 0.37694687 -1.63737 22.169155 1.5383079 342.55722
-0.050593 0.37731206 -1.6385503 22.236246 1.5403554 367.28317
0.04983585 0.37696463 -1.6382 20.351612 1.5462209 404.51291
0.14988035 0.37703946 -1.638381 19.996716 1.5590938 441.13464
0.24979971 0.37678093 -1.6380482 17.558922 1.5776254 477.01514
0.34941745 0.37699041 -1.6379358 13.854867 1.6024163 511.79291
0.41277167 0.37658143 -1.6363586 10.766233 1.6194485 533.53894
0.68364 0.38604 -1.6779 0 1.762 613
0.79431248 0.35554749 -1.63385 1 1.77075 652.25
0.83329439 0.35108835 -1.6370966 1.755102 1.792856 662.60901
-0.73709315 0.40397716 -1.6815276 13.230769 1.7116307 130.43077
-0.64755887 0.40451869 -1.6818436 14.415094 1.680717 158.82076
-0.54927164 0.40618321 -1.6848562 16.913908 1.6543244 191.37749
-0.44924474 0.4070698 -1.6863459 21.200001 1.6314456 225.34285
-0.3496733 0.40786043 -1.687902 21.846939 1.6145509 259.98981
-0.26874858 0.4091458 -1.6864207 21.984127 1.6026418 288.50793
-0.12070266 0.41980508 -1.6821177 20.025316 1.5920759 341.48102
-0.050676286 0.40758881 -1.6884266 23.068783 1.5957937 366.65079
0.048896592 0.40754133 -1.6883594 18.791208 1.6017036 402.27472
0.14987762 0.40742713 -1.6885321 18.034483 1.6141729 437.98276
0.24882793 0.40756729 -1.6884464 15.556818 1.6321641 472.32956
0.34932956 0.40750787 -1.6892416 12 1.657124 506.25443
0.41237077 0.40792552 -1.688624 9.6190472 1.6744999 527.11902
0.84659541 0.41756931 -1.6153835 2 1.7946074 667.24255
-1.1070151 -0.50391799 -1.5132301 11 1.7694499 1.95
-1.0483974 -0.50506151 -1.5097315 11.701818 1.7343564 17.367273
-0.95926267 -0.5052349 -1.5095652 11.6 1.6870761 42.691891
-0.86709905 -0.50622159 -1.5095078 12.882883 1.6419595 70.333336
-0.72536904 -0.50594074 -1.5103623 14.310161 1.5810803 115.85027
-0.64988762 -0.50610435 -1.5107175 14.257732 1.553172 141.51804
-0.54833281 -0.50649512 -1.5111696 13.740139 1.5205272 177.37587
-0.45129156 -0.50619417 -1.5121235 13.062356 1.4953897 212.98845
-0.34939069 -0.50683117 -1.5121158 14.08502 1.4747732 251.4919
-0.24871394 -0.50716949 -1.5129733 16.296434 1.4618399 290.45404
-0.15066528 -0.50795519 -1.5135826 16.151724 1.4557599 328.89484
-0.05060371 -0.5082798 -1.5147504 16.577923 1.4567294 368.263
0.050664976 -0.50856328 -1.5161527 15.44409 1.4648649 407.86102
0.15039475 -0.50940132 -1.5160874 14.829412 1.4784511 446.32941
0.24965619 -0.50975502 -1.5172513 14.097489 1.4994404 483.6647
0.34985742 -0.51033127 -1.5176064 14.47093 1.5262132 520.24127
0.42400056 -0.50980002 -1.5186454 13.133928 1.5502905 546.38391
0.55167663 -0.51109886 -1.5188266 12.528771 1.5982515 589.44324
0.649863 -0.51106477 -1.5194095 11.607476 1.6410511 620.71027
0.74945986 -0.5109672 -1.5194588 11.653028 1.6887118 650.81177
0.8494395 -0.51111162 -1.5189964 10.943942 1.740628 679.37073
0.91130674 -0.50921202 -1.5236294 10.073395 1.7779909 695.50458
-1.1103412 -0.48748386 -1.5399774 11.181103 1.7881345 4.8031497
-1.0469115 -0.47926939 -1.5560653 12.036858 1.7640682 24.206596
-0.94938093 -0.47581342 -1.5550684 10.493151 1.7118993 51.405251
-0.87331414 -0.48175144 -1.5455154 11.792899 1.6687632 72.74852
-0.74345928 -0.47625512 -1.5617986 13.324887 1.6251415 115.62624
-0.64984381 -0.47884682 -1.5598152 14.199702 1.5892209 146.45082
-0.54982942 -0.47895715 -1.560185 14.522876 1.5576245 181.01379
-0.44981444 -0.47909346 -1.5606334 14.32034 1.5319974 216.87668
-0.34981239 -0.47956911 -1.5613811 14.559943 1.5129405 253.8251
-0.24992956 -0.48010236 -1.5622139 14.818247 1.5004334 291.51819
-0.15025438 -0.48025331 -1.5633078 16.03882 1.4946504 329.59814
-0.050712906 -0.4806298 -1.5642074 14.957215 1.4954031 367.75198
0.04937312 -0.48111847 -1.5649518 14 1.5026737 405.91241
0.14965411 -0.48153305 -1.5659031 14.061954 1.5167359 443.59967
0.24937017 -0.48199755 -1.5667294 13.943192 1.5370045 480.2406
0.34938315 -0.48241866 -1.567593 13.579877 1.5634817 515.8941
0.43179372 -0.48012206 -1.5699919 12.739195 1.5903735 544.21759
0.5650717 -0.48384804 -1.5648196 12.167414 1.6359884 588.71301
0.64962566 -0.48298034 -1.5690011 11.637696 1.6754465 614.63666
0.74965793 -0.48306108 -1.5689968 11.558824 1.7223612 644.44006
0.84505194 -0.48408258 -1.5666124 10.798479 1.7695187 671.67554
0.9137463 -0.47976133 -1.5517027 12.846154 1.7942438 692.88464
-1.0031 -0.35358 -1.5994999 14 1.749 38
-0.95796716 -0.34865147 -1.5528629 6.5581393 1.6860465 42.976746
-0.8185671 -0.36135143 -1.5483285 12.857142 1.6178571 85.14286
-0.79031754 -0.382725 -1.5208 15.5 1.5857501 90.75
0.48566896 -0.348663 -1.5409801 11.8 1.5517002 570.59998
0.5479483 -0.3520658 -1.567225 10.666667 1.6004167 587.66669
0.92745739 -0.39136797 -1.5710601 27.733334 1.7975335 697.46667
-0.95749831 -0.23780668 -1.5653334 10.666667 1.6789999 41.666668
-0.85319537 -0.27950546 -1.5544636 15.272727 1.6242728 72.545456
0.54227334 -0.24625166 -1.5208501 8 1.5385 595.5
0.60729605 -0.25937599 -1.5740401 15.6 1.6152 608.59998
-1.0053999 -0.18123999 -1.5797501 5 1.7095 29
-0.93010336 -0.15298499 -1.5545832 16.333334 1.6468333 46.166668
-0.88195002 -0.18823999 -1.5466 22 1.619 60
0.55149126 -0.16523249 -1.5314749 14.5 1.54175 598.75
0.63115752 -0.168405 -1.5637749 8.5 1.6055001 619.75
0.85386944 -0.10924444 -1.5467501 2 1.6995001 690.22223
0.910025 -0.11872 -1.5975 1 1.7735 696
-1.0162799 -0.059630204 -1.5274999 8.8000002 1.6637999 14.6
-0.88666999 -0.088851005 -1.5494 22 1.6159999 57.5
-0.18976 -0.041799501 -1.5374 3 1.399 312
0.55333245 -0.053831 -1.5154499 8.5 1.5204999 603.25
0.66700906 -0.051335901 -1.51846 1.4 1.5753 640.20001
0.72051501 -0.070601754 -1.5059209 2.5 1.5916249 659.08331
0.804515 -0.099344 -1.5220001 3 1.651 681
-1.0558 0.070413001 -1.5199 0 1.6799999 2
0.6878832 0.053089567 -1.5032439 0.079999998 1.5721201 649.52002
0.75943136 0.061985999 -1.542434 0.96439171 1.642754 664.25519
0.84330338 0.057409596 -1.5574818 0.64041996 1.7003872 685.77032
0.90732336 0.072115064 -1.5904381 0.66666669 1.763857 697.09521
-1.01915 0.124965 -1.5652499 2 1.7 21.5
-0.99612999 0.15663999 -1.5901 8 1.711 33
0.68278396 0.12108 -1.5499799 1.2 1.6136 639
0.72964227 0.10675913 -1.586439 1.9130435 1.6673478 647.21741
-0.80560505 0.28432 -1.5308499 2 1.5825 84
-0.74157482 0.29844478 -1.5020783 12.782609 1.5316956 101.17391
-0.66000038 0.29881728 -1.5017773 15 1.4990909 129.45454
-0.55183583 0.29865551 -1.5017868 16.789474 1.4619739 168.78947
-0.44312868 0.29834029 -1.5022581 15.741936 1.4322579 210.19354
-0.34858978 0.29838502 -1.5032781 15.217391 1.4133698 247.5
-0.25805923 0.29834899 -1.5029048 17.317074 1.3996582 283.95123
-0.11301211 0.29813001 -1.5034157 16.526316 1.3907369 343.42105
-0.05319871 0.29824063 -1.5036784 24.918034 1.3919014 368.04919
0.049635481 0.29819313 -1.5035952 24.857143 1.3988093 410.17459
0.149194 0.29811087 -1.5041438 23.893333 1.41324 450.32001
0.24866198 0.29808652 -1.5042381 21.633802 1.433972 489.47888
0.34701809 0.29820532 -1.5039383 19.451612 1.4605488 526.96771
0.41589731 0.29846001 -1.5038335 15.066667 1.4826666 552.40002
-0.80559796 0.31356996 -1.5795799 6.4000001 1.6304001 92.400002
-0.73276192 0.32770714 -1.5508486 14.506073 1.5770378 112.21255
-0.6495437 0.32748583 -1.5509002 17.543367 1.5455005 140.48979
-0.54923528 0.32681108 -1.5506448 19.113089 1.5121684 175.96442
-0.4497835 0.3266882 -1.5510175 19.291971 1.4857914 212.63017
-0.3497816 0.32664815 -1.5518055 21.274464 1.466022 250.70287
-0.26130939 0.32613969 -1.5508765 22.406061 1.4522588 285.05151
-0.11619844 0.3271094 -1.5525515 22.272373 1.4447596 342.40466
-0.050544504 0.32676145 -1.553031 25.284382 1.4460325 368.43124
0.049854025 0.3264429 -1.5528185 24.322115 1.4524518 408.05768
0.14996938 0.32660726 -1.5535157 22.622711 1.4666693 446.97559
0.24990436 0.32643163 -1.5530528 19.888748 1.4862863 485.02148
0.34974158 0.32679877 -1.5530511 14.858612 1.5127797 521.81622
0.41579464 0.32577649 -1.5504043 11.44856 1.5307369 545.81482
0.89850998 0.38922 -1.5937001 2 1.799 686
-0.23082 0.44341001 -1.5498 10 1.476 298
-0.12841 0.451855 -1.57575 7 1.4974999 338
0.86023575 0.43432716 -1.5955286 3.1428571 1.7892857 673.42859
-1.10218 -0.51066601 -1.4982201 10 1.7568001 1
-1.0402714 -0.53488475 -1.4548602 11.895765 1.6950499 11.883551
-0.95283699 -0.53909039 -1.4455792 11.634375 1.6419194 35.86953
-0.84760654 -0.53850776 -1.4495294 13.05799 1.5926297 68.834404
-0.74911767 -0.53617603 -1.4509085 13.881508 1.5494163 101.00718
-0.64767694 -0.53849119 -1.4507624 13.832528 1.5098509 136.11433
-0.55000955 -0.53989577 -1.4486312 14.308672 1.4756347 171.23273
-0.4493742 -0.54019821 -1.4488995 14.497448 1.448271 209.19165
-0.34970978 -0.54147863 -1.4486307 15.862381 1.4274913 248.04707
-0.24993621 -0.54238611 -1.4488971 16.07798 1.4138143 287.9176
-0.15013303 -0.54348385 -1.4484072 16.904634 1.4064404 328.36588
-0.050140709 -0.54434991 -1.4488513 17.961555 1.4069487 369.10309
0.049866993 -0.54520845 -1.449414 17.379097 1.4146394 409.61072
0.14957774 -0.54689735 -1.4484247 16.611061 1.4281075 449.44424
0.24991705 -0.54782182 -1.4489168 16.231657 1.4495691 488.48593
0.34997106 -0.54808599 -1.4492011 15.464788 1.4770523 526.16656
0.44496536 -0.54659784 -1.4347222 16.137001 1.4953845 562.44873
0.54949194 -0.54920018 -1.4492949 13.706009 1.5495697 596.61053
0.64994681 -0.55015719 -1.4488903 12.290196 1.5940685 629.44928
0.74970174 -0.55020237 -1.4487941 11.808284 1.6431041 660.2077
0.84231228 -0.5475114 -1.4539192 11.363774 1.6957968 686.36987
0.90425068 -0.52411532 -1.4953732 10.133333 1.7559334 697.66669
-0.92081797 -0.47317624 -1.4662254 6.8235292 1.6233919 45.058823
-0.86532629 -0.44471133 -1.4465429 11.353847 1.5723538 57.46154
-0.73566234 -0.45687196 -1.4512123 14.16 1.5203333 101.61333
-0.69753665 -0.4506 -1.4056333 11.333333 1.4629999 107.66666
0.39970747 -0.48162171 -1.4233168 15.5 1.4484167 550.58331
0.41317499 -0.47496283 -1.4171064 16.597561 1.4458016 556.63416
0.50554001 -0.42457998 -1.4816999 15 1.5235 583
-0.91837382 -0.33052501 -1.4647501 3.5 1.5883751 38.625
-0.85483295 -0.36986214 -1.4411212 8.8076925 1.5447112 56.21154
-0.76333213 -0.35160708 -1.4497374 18.083334 1.5053749 87.291664
0.44732603 -0.36109647 -1.43922 11.9 1.4484001 570.75
0.52098376 -0.34773499 -1.4678 15.5 1.4998749 593.375
-0.90452999 -0.25696 -1.4744 8 1.577 42
-0.84598118 -0.26342332 -1.4507776 12.222222 1.5292221 56.666668
-0.78727996 -0.24864 -1.4268999 18 1.4775 71.5
0.46609375 -0.24745561 -1.4418062 12.125 1.4360626 580.875
0.535088 -0.25926095 -1.4423501 19.200001 1.4668 605.29999
-0.90627003 -0.12448 -1.4019001 4 1.502 24
-0.81339335 -0.15540665 -1.4118 22 1.4653333 57.333332
0.48614001 -0.153116 -1.4315599 13.6 1.423 592
0.5366925 -0.15222375 -1.4575125 22.25 1.4677501 606
0.79914999 -0.10027 -1.4773999 4 1.6109999 688
0.81307918 -0.1032 -1.4672587 3.8823528 1.6106178 694.08826
-0.95961332 -0.050408002 -1.4382334 8 1.558 13.833333
-0.84914798 -0.086319193 -1.4668 3.2 1.5256001 54.599998
-0.17726 -0.040085997 -1.4345 6 1.2955 314.5
0.57328248 -0.03062905 -1.420375 9.5 1.44425 626.5
0.66773415 -0.029248107 -1.434116 1.955665 1.5019455 656.16833
0.74010843 -0.039885387 -1.430344 1.7876107 1.5372964 679.98499
0.80634224 -0.055439159 -1.4454222 2.2222223 1.5873332 696.88892
-0.98065001 0.00044060001 -1.4374 0 1.568 7
0.59303999 0.0018248 -1.4025 0 1.437 637
0.66639543 0.021431454 -1.4630728 1.1360449 1.5260265 650.18231
0.74520439 0.017971758 -1.4664557 0.69538462 1.5698135 674.4646
0.81614482 0.015071033 -1.4790568 0.5147059 1.6191685 693.33087
-0.91576749 0.1379825 -1.4473 4 1.5465001 30.25
-0.84243864 0.17777286 -1.4150572 3.1428571 1.485 48.714287
-0.82037747 0.21402001 -1.442225 2 1.50175 62
-0.73138088 0.26809597 -1.4472309 13.065953 1.473546 94.925133
-0.64934385 0.26818383 -1.4474776 16.519211 1.4405135 124.4839
-0.54965109 0.2676875 -1.447371 19.010923 1.4051157 162.03773
-0.44972458 0.26750636 -1.4479529 20.76894 1.3766931 201.52368
-0.34987801 0.26682419 -1.4475197 23.421291 1.3540229 242.35031
-0.25594044 0.26601946 -1.4467988 24.248997 1.3387363 281.8233
-0.11453535 0.26628307 -1.448058 26.18125 1.330452 342.46875
-0.049946237 0.2659457 -1.4474379 28.161791 1.3307878 370.28485
0.050189536 0.26593745 -1.4478748 27.667839 1.3385001 413.17224
0.14988065 0.26563036 -1.4478716 25.140526 1.3530382 455.18314
0.2496123 0.26558754 -1.448208 21.437847 1.3750522 496.06122
0.34960464 0.26612943 -1.4489994 20.243761 1.4044307 535.48657
0.41893616 0.26517901 -1.4466934 15.759398 1.4255121 562.30829
-0.21458428 0.32320642 -1.4499713 11.571428 1.3486427 300
-0.13002636 0.35796997 -1.4481546 0.90909094 1.350091 336
0.36642 0.32279 -1.4388334 0 1.4109999 541.66669
0.42192 0.30430001 -1.4921 0 1.475 556
0.58573002 0.34000999 -1.4852 0 1.541 613
-0.21696 0.40689999 -1.4289 16 1.349 299
-0.12800331 0.41445336 -1.4482332 16 1.3646666 337
-1.0069896 -0.60823262 -1.3206532 12.151898 1.5966457 2.556962
-0.95424509 -0.60955411 -1.3174893 11.736346 1.5654556 18.033897
-0.85294074 -0.61009133 -1.3176363 13.194445 1.5127064 50.248264
-0.74914187 -0.61059344 -1.3191044 12.824356 1.4649568 85.718971
-0.64948314 -0.61067259 -1.3193669 13.99546 1.4236515 121.70261
-0.55002224 -0.61119729 -1.3193561 14.689301 1.3882982 159.59773
-0.44930193 -0.61144572 -1.320618 15.3724 1.3599939 199.90643
-0.3493548 -0.61219996 -1.3216602 15.891418 1.3388453 241.39142
-0.24969116 -0.6127879 -1.3221601 16.861338 1.3243871 283.823
-0.14955319 -0.61295706 -1.3231815 17.247398 1.3176079 327.16174
-0.050126985 -0.61339688 -1.3239909 18.646248 1.3183185 370.3905
0.050376497 -0.61389637 -1.3249309 18.106607 1.3267567 413.77927
0.15036832 -0.61448544 -1.3261838 20.06922 1.3429103 456.14432
0.24998495 -0.61505538 -1.3266543 19.726269 1.3654134 497.20972
0.34963575 -0.61512506 -1.3279531 18.590876 1.3952131 536.69257
0.45013168 -0.61561316 -1.3277272 17.584877 1.430546 574.85187
0.54972029 -0.61594892 -1.3278075 15.764706 1.4716983 610.66882
0.64969289 -0.61620998 -1.3291733 14.191919 1.5194522 644.3291
0.74934644 -0.61654675 -1.3300261 12.659189 1.5715923 675.82397
0.81366181 -0.61358464 -1.3355463 11.875913 1.6100622 694.46716
-1.0192075 -0.58006847 -1.3718957 11.819048 1.6328936 6.1500001
-0.94786 -0.58153814 -1.3642806 11.494737 1.5884526 26.169378
-0.85019404 -0.57922089 -1.3641722 13.296404 1.5375257 56.689018
-0.74875689 -0.57349586 -1.3639081 14.752662 1.4882282 90.324356
-0.6587528 -0.56810254 -1.3651125 17.838181 1.4503239 122.07245
-0.54936558 -0.58347875 -1.3690666 14.168777 1.4204773 164.33966
-0.44994631 -0.58375031 -1.3702193 14.578431 1.3931382 203.27661
-0.35029176 -0.58446789 -1.3711636 15.528011 1.3724195 243.67577
-0.25027633 -0.58488244 -1.371977 16.745043 1.358426 285.24078
-0.15075776 -0.58527279 -1.3726032 17.097897 1.3515427 327.22479
-0.050507046 -0.58577895 -1.3736175 18.359051 1.3524084 369.71588
0.04935649 -0.58624989 -1.3747343 18.043991 1.3607041 411.75098
0.14954783 -0.58709782 -1.3756995 18.691002 1.3762811 453.19525
0.24931374 -0.58763874 -1.3763773 18.718231 1.3984003 493.37753
0.34911543 -0.58760285 -1.3780551 17.835749 1.427842 532.05316
0.44882122 -0.58807707 -1.3776665 15.612565 1.4618839 569.21777
0.54892534 -0.58809608 -1.3782873 15.015351 1.5026531 604.56909
0.64893347 -0.58875346 -1.3787332 13.691543 1.5488482 637.88556
0.7490766 -0.58872056 -1.3798213 12.69337 1.6003093 669.15881
0.82418138 -0.58759677 -1.3809167 11.317784 1.6415799 691.37024
-0.84368807 -0.46165115 -1.3545771 15.434783 1.490011 49.29348
-0.71435201 -0.46688673 -1.3212454 22.995556 1.4026803 88.888885
-0.68217164 -0.45925501 -1.3252194 22.707989 1.389889 100.9697
0.39969167 -0.42220166 -1.39175 16.666666 1.4031668 557.33331
0.41687688 -0.43924695 -1.3760735 22.398258 1.4003301 565.34491
-0.81767005 -0.36544606 -1.3668355 10.039216 1.4628429 54.823528
-0.76333952 -0.35359603 -1.3348728 12.920635 1.4073489 67.317459
-0.68034387 -0.37994027 -1.3127985 19.661016 1.3566101 95.322037
0.39981627 -0.36862001 -1.3610126 20.25 1.362 564
0.41538519 -0.3521032 -1.3318839 23.500751 1.3378899 575.27667
-0.82285273 -0.25915816 -1.3541909 11.818182 1.4341818 45.909092
-0.74368477 -0.25250089 -1.3374913 16.695652 1.3803914 70.652176
0.40955949 -0.27334946 -1.3162657 18.876404 1.3048874 578.42133
0.51397002 -0.236855 -1.39165 36 1.4089999 607
-0.86211848 -0.15133692 -1.3623923 8.7692308 1.4477692 30.923077
-0.76281786 -0.16974857 -1.3381214 15.142858 1.3784999 61.214287
0.45029804 -0.15540141 -1.3365667 16.476191 1.3225238 594.4762
0.52129 -0.15160501 -1.3560874 17.75 1.37025 618.25
-0.93919331 -0.016823366 -1.3920332 6.6666665 1.5073333 10.333333
-0.88730001 -0.052506499 -1.3326499 14 1.4300001 14.5
-0.76587498 -0.075283244 -1.3367 17 1.3710001 58
-0.16998842 -0.031592119 -1.322894 10.375 1.1834688 314.65625
0.46461624 -0.069862753 -1.3404875 10.5 1.3253751 600.75
0.54284143 -0.034227513 -1.3519 14.571428 1.3692856 628.71429
0.69303614 -0.052606687 -1.3971922 2.3076923 1.483923 671.69232
0.74140328 -0.057464208 -1.3887821 1.6167513 1.5035561 688.92639
-0.91384 0.091935001 -1.3684 0 1.476 14
-0.88778001 0.088214003 -1.3293333 1.3333334 1.4289999 14
0.57131994 0.033778854 -1.3426501 14 1.3747 640.90002
0.61023164 0.080339171 -1.3663834 1.6666666 1.416 649.66669
-0.90307999 0.11463 -1.3929 8 1.492 23
-0.84499252 0.14121 -1.3594499 2.5 1.43525 35.875
-0.72826964 0.19145647 -1.3165921 13.557789 1.3457288 70.276382
-0.65036976 0.1911581 -1.3150283 15.828571 1.3097116 100.12467
-0.54999584 0.19105816 -1.3150074 18.899521 1.2705667 141.1866
-0.44939119 0.19113998 -1.3155376 21.075893 1.2387851 184.77902
-0.35010129 0.19073915 -1.3153845 24.633406 1.2140929 229.71584
-0.2492325 0.19033827 -1.3156736 27.659836 1.1973778 276.9877
-0.15039285 0.19023933 -1.3169415 28.916666 1.1900924 324.30951
-0.049983114 0.19030228 -1.3170782 28.698603 1.1899737 372.65668
0.04997522 0.18988761 -1.3167559 26.356321 1.1977063 420.49042
0.14951088 0.18982321 -1.3167049 24.972656 1.213887 467.16016
0.24977523 0.18978269 -1.3170422 26.260162 1.2384495 512.59149
0.34904402 0.18959221 -1.3172045 23.744856 1.2699379 555.61108
0.42389154 0.18947308 -1.3168539 19.702703 1.2975718 586.70721
0.58664 0.10507333 -1.3765668 2 1.4146668 639
0.67601001 0.14239499 -1.3815501 1 1.467 668
-0.72819912 0.22036213 -1.3651567 14.663636 1.3922186 80.370453
-0.64937508 0.21977335 -1.3642575 16.538937 1.357566 109.91471
-0.54952395 0.21953808 -1.364261 19.77804 1.3200651 149.53247
-0.45014849 0.21954612 -1.3647749 22.004593 1.2898849 191.12054
-0.34980902 0.21886291 -1.364339 24.430634 1.2655711 234.78801
-0.24708501 0.22128803 -1.3627015 24.498455 1.2479843 280.96396
-0.15876622 0.24978337 -1.3381938 40.870712 1.2213953 320.98615
-0.050428759 0.21829209 -1.365459 27.837183 1.2419645 371.50934
0.049444441 0.21830006 -1.3659276 25.567749 1.2501537 417.29004
0.14944677 0.21832067 -1.3662776 22.893764 1.2661107 462.25983
0.24947903 0.21822557 -1.3664562 22.449276 1.2894711 505.88647
0.34972161 0.21853787 -1.3669478 19.965044 1.3204389 547.75903
0.42235896 0.21782252 -1.365896 16.519403 1.3454679 577.11938
-0.20537455 0.35244259 -1.3185387 13.123967 1.2278428 299.38843
-0.15404367 0.32452059 -1.311511 34.21809 1.2107942 322.91696
0.33576 0.32879999 -1.3974 0 1.364 535
0.52227998 0.38157001 -1.3306 4 1.388 615
-0.2164 0.40009999 -1.3975 16 1.317 298
-1.001325 -0.62155998 -1.2970251 12 1.5805 1
-0.9389441 -0.64633238 -1.2472827 11.027117 1.5180423 13.174875
-0.86004013 -0.64786243 -1.2434868 12.410098 1.4735584 38.128284
-0.7420246 -0.64382207 -1.240772 16.120972 1.4122424 78.19101
-0.64919776 -0.65225548 -1.243186 14.788093 1.3779061 113.76761
-0.54950851 -0.65316099 -1.2425911 15.394214 1.3409736 152.8056
-0.44966567 -0.65378296 -1.2427986 16.109091 1.3111172 193.98297
-0.34968087 -0.65502173 -1.2425138 16.675676 1.2881538 236.90016
-0.24981502 -0.65604067 -1.2420452 17.807163 1.272396 281.04068
-0.1503208 -0.657067 -1.241888 18.566668 1.2646619 325.85391
-0.050271112 -0.65805209 -1.2416402 19.381977 1.2646481 371.19098
0.049884602 -0.65922248 -1.2415228 18.929533 1.2727221 416.28781
0.14954934 -0.66006106 -1.2417254 20.713757 1.2885922 460.31827
0.24975607 -0.66150826 -1.2411691 20.332342 1.3116333 503.30612
0.34972164 -0.66251284 -1.2406683 20.738699 1.3415583 544.51434
0.4494848 -0.66313636 -1.2404785 19.610308 1.3781028 583.63898
0.54951727 -0.6641193 -1.2396487 18.102003 1.4204942 620.75134
0.64929634 -0.6645925 -1.2400818 15.724272 1.4691101 655.3175
0.74198961 -0.66408759 -1.2429913 13.721753 1.5201627 684.99237
0.80270886 -0.63778156 -1.2901185 12.444445 1.5785925 697.48151
-0.91084284 -0.58860785 -1.2589035 7.3571429 1.4897498 18.821428
-0.84791136 -0.56374878 -1.2555745 12.534162 1.4454098 36.90062
-0.77846229 -0.54941547 -1.2295505 19.194118 1.3842912 55.067646
-0.83125037 -0.47715262 -1.2581451 11.096774 1.4099678 36.161289
-0.74868429 -0.43821138 -1.2467325 20.636364 1.3482815 60.780304
-0.68647933 -0.41917497 -1.2892768 30.176678 1.3492788 90.954063
-0.80328 -0.39732 -1.296 2 1.404 48
-0.72976023 -0.34935793 -1.2464286 20.88624 1.3150533 62.373779
-0.68247151 -0.34643409 -1.2608286 25.670055 1.304548 83.24707
0.41936764 -0.30668461 -1.2970563 28.273504 1.2979314 584.44446
-0.71852207 -0.27981097 -1.2159032 24.073334 1.2684574 56.639999
-0.68141711 -0.26272374 -1.2199978 27.200001 1.2510735 71.475975
0.41696399 -0.24578285 -1.2685708 28.577923 1.2600313 590.80975
-0.80996507 -0.16283999 -1.2807833 10.333333 1.3525 31.833334
-0.74385428 -0.16000043 -1.2361566 19.304348 1.2805218 46.391304
-0.68010801 -0.18836936 -1.2076766 24.066668 1.2276332 66.433334
0.41545686 -0.15864673 -1.2264205 29.342466 1.2089119 600.88324
-0.83726001 -0.069360003 -1.2649 3 1.3464999 16.5
-0.73363334 -0.075143613 -1.22935 9.1111107 1.2623889 47.111111
-0.16117042 -0.02154626 -1.2778088 8 1.1377391 317.69565
0.41484994 -0.076031841 -1.2160234 19.370371 1.1921357 604.24072
0.51422834 -0.034218799 -1.2806834 18 1.2928333 632.16669
-0.83101207 0.059705906 -1.23006 1.6 1.3139999 10.4
0.48774001 0.023215 -1.2012 6 1.21 639
0.53167915 0.032555275 -1.2652911 15.636364 1.2877274 642.27271
-0.72480547 0.1534802 -1.2492971 14.707423 1.28122 56.464336
-0.6492098 0.15248033 -1.247571 17.292454 1.2444617 86.502022
-0.54925305 0.15256983 -1.2482383 19.561069 1.2040619 129.31934
-0.44931439 0.15202527 -1.2477561 21.213057 1.1696796 174.65282
-0.34937751 0.15181316 -1.2480346 23.259386 1.1437969 222.49716
-0.24980354 0.15117271 -1.2478549 24.406855 1.1257633 271.97568
-0.14968804 0.15117356 -1.248753 25.313877 1.1174812 322.98129
-0.049813449 0.15112339 -1.2491947 26.155943 1.1176715 374.2301
0.049844306 0.15029463 -1.2481709 25.763657 1.1251801 425.03735
0.14966145 0.15017624 -1.248644 22.692877 1.1429474 474.69003
0.24951798 0.14976986 -1.2484665 24.448908 1.1683624 522.60663
0.34990355 0.14924391 -1.2477988 26.193069 1.2012982 568.50311
0.4251537 0.14857279 -1.2473661 20.462337 1.2306162 601.22729
0.3301 0.26664999 -1.2754 0 1.237 552
-0.20165256 0.36052281 -1.2882882 15.564102 1.2003204 300
-0.16486037 0.35384431 -1.2835475 36.224041 1.1915473 317.36285
-0.92723709 -0.6797207 -1.1868244 11.470433 1.4804232 8.9093294
-0.85871184 -0.67643893 -1.1810527 11.904446 1.4375583 30.076445
-0.75675887 -0.66704589 -1.1751916 19.410675 1.3779231 63.856598
-0.64949369 -0.68197685 -1.1877947 15.27393 1.3464446 107.80636
-0.54958081 -0.68228036 -1.187966 15.538693 1.308919 147.77296
-0.4497548 -0.68275684 -1.1888463 16.401745 1.2788188 189.92908
-0.34976086 -0.6833666 -1.1894261 17.408716 1.2557211 233.92168
-0.24946615 -0.68391621 -1.1901346 17.779018 1.2403308 279.42328
-0.14960986 -0.68444252 -1.1905844 18.894375 1.2326746 325.55826
-0.050257768 -0.68510115 -1.1913604 19.741224 1.2334493 371.72787
0.04944342 -0.68565953 -1.1921591 18.919735 1.2422038 417.70035
0.14945033 -0.68627071 -1.192971 21.150156 1.2588986 462.88007
0.24965067 -0.68680608 -1.1935493 21.102728 1.283005 506.73157
0.34952325 -0.68755633 -1.19442 21.220598 1.3145686 548.54053
0.44950202 -0.68772709 -1.1946059 19.86161 1.3520108 588.38818
0.54904658 -0.68818498 -1.1950918 18.480171 1.3957789 625.68402
0.64851052 -0.68838769 -1.195425 17.37792 1.4448291 660.60236
0.73215681 -0.68895793 -1.1961578 13.705607 1.4903594 688.03192
-0.82593811 -0.54856759 -1.1644369 11.0125 1.3577436 25.30625
-0.78688294 -0.58252239 -1.1735728 17.272728 1.3568183 44.290909
-0.80409867 -0.48852232 -1.1653844 16.666666 1.325902 27.725491
-0.78546131 -0.45547467 -1.1811503 12.504348 1.3180954 35.13913
-0.70906448 -0.23103002 -1.1836565 29.766466 1.2275355 50.907185
-0.68656701 -0.22601622 -1.1852249 30.664234 1.2169873 60.229927
-0.71065611 -0.14866652 -1.1404979 30.703125 1.1804732 36.737499
-0.68412083 -0.14905658 -1.1523786 27.986519 1.1771914 50.714462
0.42036277 -0.1156735 -1.1922162 33.648823 1.1757774 611.06207
-0.7189641 -0.081489168 -1.1138139 21.413334 1.1564311 24.702223
-0.67731601 -0.066237614 -1.1223752 25.514681 1.1411046 44.2962
-0.51674998 -0.023283111 -1.1019111 25.777779 1.0478889 113.88889
-0.43067706 -0.019014578 -1.1018879 31.224138 1.0165693 158.44827
-0.34273362 -0.013619239 -1.103884 35.555557 0.99318409 206.81709
-0.24974254 -0.0095019424 -1.1068294 44.445961 0.97723979 260.11264
-0.15128116 -0.0079944655 -1.1130213 41.023087 0.97293949 318.02066
-0.051061824 -0.0067337016 -1.1187068 49.580357 0.97815865 376.89285
0.048202306 -0.0055609071 -1.1240236 40.833645 0.99305385 434.03738
0.14743482 -0.0045492966 -1.1297407 36.014671 1.0178586 488.89487
0.24753273 -0.003523143 -1.1343452 34.420689 1.0507312 541.34827
0.34567174 -0.0025978826 -1.1397691 32.462364 1.0917957 589.11292
0.41734537 -0.047249109 -1.1620828 27.696714 1.1436177 617.3681
-0.72140998 0.084567994 -1.1283224 14.449878 1.1700788 27.457212
-0.64938605 0.08457467 -1.1277692 16.011528 1.1330194 58.247837
-0.54948771 0.084897049 -1.1290634 16.078783 1.0890336 104.53357
-0.44874838 0.08419089 -1.1283296 17.784964 1.050455 154.40501
-0.34994316 0.083211727 -1.1278476 20.235989 1.0211055 206.60545
-0.24699455 0.072387613 -1.1249092 26.462294 0.99727076 263.56039
-0.14779297 0.053936575 -1.1193985 32.12035 0.9809708 320.34976
-0.04842037 0.048134182 -1.1185408 37.420223 0.97967702 378.43802
0.050076194 0.046615291 -1.1203239 34.919136 0.99111706 435.33087
0.14972445 0.046325669 -1.123174 33.025879 1.0134317 490.88138
0.24962911 0.046120856 -1.1258631 32.189907 1.0447565 543.74133
0.34958124 0.046498302 -1.1288383 31.276817 1.084725 593.08118
0.42395765 0.047759388 -1.1254617 26.416933 1.1142539 628.78192
0.50714004 0.058518499 -1.1745501 20 1.1975 653
-0.72197932 0.11267574 -1.1779925 14.692063 1.2145369 40.304764
-0.64973527 0.11249977 -1.178208 18.744186 1.1793855 70.578659
-0.54992843 0.11248884 -1.1785237 19.431818 1.1363406 115.15656
-0.45030737 0.1121887 -1.1791549 19.640097 1.1010193 162.88527
-0.34966648 0.1118822 -1.1785436 21.921478 1.0723571 213.76906
-0.2499343 0.11168551 -1.1787333 23.828178 1.0535091 266.56815
-0.15041858 0.11186671 -1.1799777 24.046511 1.0449831 320.71982
-0.050399464 0.11177395 -1.1801095 25.80822 1.0447694 375.57648
0.049610693 0.11134494 -1.179974 25.061466 1.0538092 429.96927
0.15009971 0.1109667 -1.1801047 23.524849 1.072481 483.18787
0.24984021 0.11065118 -1.1802951 22.508518 1.0998937 533.789
0.34886304 0.11035103 -1.1805882 20.237337 1.1352417 581.23157
0.42762437 0.11031579 -1.1802164 18.135212 1.1679035 616.94366
0.29005 0.24555001 -1.1686 0 1.1210001 552
0.4095467 0.31770334 -1.1121666 1.3333334 1.1339999 615.33331
-0.84676504 -0.61659002 -1.0936 8 1.3425 10.5
-0.85930002 -0.59467995 -1.0913999 7 1.339 3
-0.71022683 -0.038573999 -1.0811352 28.490231 1.1223408 18.795736
-0.66216618 -0.024466738 -1.082558 31.596048 1.0979341 40.268387
-0.55021816 -0.013158519 -1.0879033 30.407621 1.0492463 94.162384
-0.45278043 -0.011174734 -1.0932128 33.823246 1.0159402 145.07301
-0.36087942 -0.0070965607 -1.0969125 37.617886 0.99100965 195.63414
-0.27011269 -0.0057918685 -1.0972896 37.294117 0.97111791 247.38235
-0.16815335 -0.015679667 -1.0924333 11.333333 0.95333338 307.33334
-0.098678 -0.0139 -1.087 8 0.94499999 349
0.167555 -0.0078972997 -1.0957501 5 0.99000001 505
-0.71495914 0.038616799 -1.0597528 17.930851 1.1071421 10.654255
-0.64981073 0.032562118 -1.0597266 23.068295 1.0722384 39.644672
-0.54920119 0.033427659 -1.0650586 25.736553 1.0288171 89.268028
-0.44955903 0.033191547 -1.06964 28.998257 0.99335027 142.13393
-0.3496016 0.032848187 -1.0740947 33.705898 0.96672016 198.54404
-0.25125101 0.034996457 -1.0776302 37.948292 0.94933587 256.51279
-0.1514574 0.041404907 -1.0778658 40.178596 0.93872046 316.75763
-0.052207872 0.046626527 -1.0771868 38.09724 0.93769377 377.39224
0.048553869 0.049628604 -1.0781798 35.064533 0.94894987 438.2016
0.14879477 0.050863527 -1.0811687 31.309507 0.9723146 496.37695
0.24822088 0.051996656 -1.0847237 33.191662 1.0054277 550.75061
0.34806347 0.053214882 -1.0883797 34.169098 1.0472598 601.41882
0.42810351 0.053887002 -1.0914186 32.086143 1.0861697 639.09552
